4.253838492032861573e+00 1.562028878467703663e+00 3.088896042362430094e+00
4.239008433280718968e+00 1.555789897465960969e+00 3.033928131836943543e+00
4.228995410032512225e+00 1.551453436543541731e+00 2.991895503065947537e+00
4.228422541857089989e+00 1.551450574953594508e+00 2.991230932105294116e+00
4.218430490186895199e+00 1.550854928786908671e+00 3.031315738554092309e+00
4.209622320564680109e+00 1.545570749579449954e+00 2.981947102460080767e+00
4.206066855479987154e+00 1.542872425245980450e+00 3.005360970936058251e+00
4.203065293778212919e+00 1.543169688448598587e+00 3.005936326877187259e+00
4.200906164621126315e+00 1.536055901704961979e+00 3.062203021826436000e+00
4.204671100358281066e+00 1.536179909361972351e+00 3.075492150116528212e+00
4.203963073394669792e+00 1.532611491621197919e+00 3.047590175235141530e+00
4.203279870937718599e+00 1.533538972293015057e+00 3.100880345624408729e+00
4.201049561693268153e+00 1.521519013055136815e+00 3.006568652493754268e+00
4.198606373869774089e+00 1.513897213267552333e+00 3.065088604700379360e+00
4.193909860252164279e+00 1.511901815068446675e+00 3.047993115518899288e+00
4.193315387059322497e+00 1.511943319867003588e+00 3.048060496481302284e+00
4.206048305309145086e+00 1.512613414980618964e+00 3.030587749865585767e+00
4.205033957159266755e+00 1.510158646468970467e+00 3.049921430409737066e+00
4.202046815834655114e+00 1.504245891586760253e+00 3.096228834276950170e+00
4.198905715063986577e+00 1.499417207492962145e+00 3.133676648732242054e+00
4.195101905999685243e+00 1.491759892212812133e+00 -3.091664672533215974e+00
4.204822982075856252e+00 1.492125938701678534e+00 -3.092723370751965462e+00
4.202169511421240067e+00 1.491972924259266531e+00 -3.092833579904434416e+00
4.212223148744052459e+00 1.492928624057893394e+00 -3.097954277744197071e+00
4.209475063581475496e+00 1.489966692700670281e+00 -3.075330906589407665e+00
4.206096638570830493e+00 1.486157910680166783e+00 -3.047535058951079012e+00
4.215294495706337408e+00 1.492500083119168375e+00 -3.093751515461299118e+00
4.210696765417642595e+00 1.504078686760609518e+00 3.100278344329404412e+00
4.209731750855270960e+00 1.514362948426858146e+00 3.021775683597277329e+00
4.203743295785992373e+00 1.515621480956809819e+00 3.017924545874623554e+00
4.220099844192107597e+00 1.513830960792789559e+00 3.020510005778271001e+00
4.204806346949697016e+00 1.527301517849105172e+00 3.116127984702725673e+00
4.202808827116245816e+00 1.538108416509023968e+00 -3.077007912586815941e+00
4.193488263734807653e+00 1.541889865019251848e+00 -3.109439846939130003e+00
4.171972126274782866e+00 1.543371360793691416e+00 3.094976765831753962e+00
4.166403516064872470e+00 1.533821710763672685e+00 3.017626195117096621e+00
4.161031110364634245e+00 1.521594330139248274e+00 2.917523863862855560e+00
4.159240960025087475e+00 1.536435917508639726e+00 3.028966356236524327e+00
4.157291505690206890e+00 1.555708842289986737e+00 -3.106674342426935187e+00
4.144459730024369293e+00 1.555736737364648681e+00 -3.101981462428486047e+00
4.143938160330339571e+00 1.555717004446757423e+00 -3.102216581512958093e+00
4.133546662426527796e+00 1.555355939556420042e+00 -3.099470985238576226e+00
4.121673442605748861e+00 1.554876270671975202e+00 -3.097701896147376566e+00
4.133202471404137768e+00 1.551597372474571745e+00 -3.130121786404867379e+00
4.127593661171230721e+00 1.556198077761532739e+00 -3.092098475270190328e+00
4.124568688942538586e+00 1.548505233135820003e+00 3.130064820756250477e+00
4.116155681726835880e+00 1.541020188230271426e+00 3.069120404572972305e+00
4.113957291312141606e+00 1.550990552073885809e+00 -3.136992117391942614e+00
4.112449501389984441e+00 1.547768881812060071e+00 3.119555902770945188e+00
4.107735245028157678e+00 1.545347306488440431e+00 3.098814517667001223e+00
4.101273952741307127e+00 1.544531487380587320e+00 3.089184540058321993e+00
4.088892874700886360e+00 1.545165560201112953e+00 3.090052634439252710e+00
4.085855912677342161e+00 1.538320951539142944e+00 3.034521206231792778e+00
4.083829245918339623e+00 1.551104554421689707e+00 3.132492694417067014e+00
4.080451192678441252e+00 1.562806160441791770e+00 -3.059690158991370978e+00
4.075033603057440779e+00 1.570363029337574545e+00 -2.996947227762958299e+00
4.059241414845483398e+00 1.568092183682812335e+00 -2.998046199381810606e+00
4.056543047993392825e+00 1.567706113645892962e+00 -2.998721196048905746e+00
4.040873901444527405e+00 1.565393270010983606e+00 -3.000104874976829983e+00
4.023113605841952989e+00 1.557916641588355189e+00 -3.038955170461570265e+00
4.018235482091084165e+00 1.544894144196153452e+00 -3.136833841318258820e+00
4.010791704990459117e+00 1.544735586333800814e+00 -3.136915245743857827e+00
3.994745936191135716e+00 1.548139639872847972e+00 -3.107964901949679337e+00
3.992333757984939169e+00 1.541908578208856406e+00 3.127021857100660718e+00
3.989411668909480291e+00 1.535852873888575498e+00 3.079587178082676679e+00
3.970474511129081563e+00 1.531881664399175946e+00 3.037333923586094553e+00
3.951627333524786678e+00 1.533734357392937619e+00 3.036461738242028918e+00
3.941136037529946901e+00 1.536340769039312937e+00 3.048053937687114967e+00
3.932888311589370467e+00 1.551623013260385431e+00 -3.120768335617483569e+00
3.943245476485862877e+00 1.551838192306780995e+00 -3.120751449801846267e+00
3.939546741398337382e+00 1.544228040175522176e+00 3.103496675016341300e+00
3.938908586824195535e+00 1.544175602113859513e+00 3.103125386430894306e+00
3.939453442879322420e+00 1.548678877682441835e+00 3.137955412057516380e+00
3.934726330563443675e+00 1.557950397040582136e+00 -3.072513885549469581e+00
3.926394970930001893e+00 1.556104433281562116e+00 -3.083635440777794390e+00
3.924879389761466442e+00 1.559310979355744031e+00 -3.057455554396122377e+00
3.915755541542912610e+00 1.561530144789965657e+00 -3.033182663766820220e+00
3.911492834407274355e+00 1.563187518226978545e+00 -3.016124404321773866e+00
3.908244513632674444e+00 1.568369084743441277e+00 -2.972554718141043217e+00
3.907231651253163296e+00 1.563100406393973296e+00 -3.012789418240606754e+00
3.905432872410636858e+00 1.565335376352412489e+00 -2.992926204033286908e+00
3.904657939384468701e+00 1.553405751287696868e+00 -3.084600349566291477e+00
3.902648081157741533e+00 1.538721579065462919e+00 3.086600065819436356e+00
3.901666701773458090e+00 1.526878772185469968e+00 2.994315313174559012e+00
3.894160288763732325e+00 1.522786626020905310e+00 3.065757969130341376e+00
3.867849164247099569e+00 1.524835329506520232e+00 3.066400946957105411e+00
3.850699158553525070e+00 1.526164657778091849e+00 3.067443980634339873e+00
3.836565772280442044e+00 1.534026326621922065e+00 3.121891844323493981e+00
3.828585210116310034e+00 1.555222244286757816e+00 -2.994938042458532124e+00
3.822565013012673152e+00 1.563485029459747766e+00 -2.923630173439441648e+00
3.821123012442873446e+00 1.561671449006011292e+00 -2.936459165846054820e+00
3.821969323683927389e+00 1.546309278630493056e+00 -3.054588797933745159e+00
3.813908551387894086e+00 1.533154437714374208e+00 3.129720384059718974e+00
3.803781993058706234e+00 1.538425496157018957e+00 -3.112057827092721940e+00
3.796500567897640011e+00 1.556922526930307304e+00 -2.964857424103466421e+00
3.793395298711534469e+00 1.556433810679185514e+00 -2.964703388754577507e+00
3.783801365033088171e+00 1.566984029046872839e+00 -2.868645235594019738e+00
3.781882151412217841e+00 1.560786402193980349e+00 -2.912212154579429946e+00
3.781393090315463557e+00 1.541792163050456077e+00 -3.055727075005944648e+00
3.779377535079919692e+00 1.543029444755551705e+00 -3.043748305980381819e+00
3.766006661570810987e+00 1.544734359101268106e+00 -3.018815539068058218e+00
3.758917812272304815e+00 1.552985974108752165e+00 -2.947457202553871447e+00
3.752328591419669124e+00 1.560638027439702036e+00 -2.878522371095183274e+00
3.750899868133497073e+00 1.552994745081387684e+00 -2.933818514542277711e+00
3.748202957675837332e+00 1.551969486575537793e+00 -2.938091743315156545e+00
3.732137575020745057e+00 1.556925869391305728e+00 -2.871841261151141023e+00
3.727332286931705596e+00 1.547916998513586107e+00 -2.929644424476744557e+00
3.723101987065792873e+00 1.537128497689825402e+00 -3.005190473480237490e+00
3.715321980582057648e+00 1.518785110793631654e+00 -3.140731666774851938e+00
3.715968948046920683e+00 1.515124968196055688e+00 3.114776722660683284e+00
3.724121093042044528e+00 1.514922586101288493e+00 3.113879012790409018e+00
3.723354750427346094e+00 1.504731720272898920e+00 -3.087878736287945181e+00
3.717433576258944328e+00 1.504047154537075492e+00 -3.088894178622779041e+00
3.713952371347731152e+00 1.505212853292549724e+00 -2.961315316999512337e+00
3.713503850806291862e+00 1.501491700469793633e+00 -2.933036964423928694e+00
3.722434122391897304e+00 1.502928944585125270e+00 -2.936631292149570971e+00
3.722614544304147177e+00 1.502948558591632011e+00 -2.937420781057587416e+00
3.719638153757752974e+00 1.501144606193551612e+00 -2.927803201192038074e+00
3.720481903553998659e+00 1.501384180679973923e+00 -2.942359423887701109e+00
3.713105803604109134e+00 1.491117147845071322e+00 -2.876910961691582447e+00
3.709576009113333406e+00 1.503773547614376538e+00 -2.985616406434222991e+00
3.703465313577317897e+00 1.515925678202101778e+00 -3.101763971650357110e+00
3.702311625218567936e+00 1.522422655971749306e+00 -3.048888643886643823e+00
3.698456390369667446e+00 1.525509395269025514e+00 -3.021343939514562038e+00
3.693657440582922113e+00 1.538228136512837407e+00 -2.916474313927725159e+00
3.676530610669001220e+00 1.544223828966467149e+00 -2.986504350240831940e+00
3.674156469715164075e+00 1.544019575107102638e+00 -2.988151625549533286e+00
3.663845978488369237e+00 1.549108497384040994e+00 -3.038951138992395329e+00
3.657117659585056302e+00 1.549602239952058813e+00 -3.029875601160609833e+00
3.648756724553017250e+00 1.550877562420944322e+00 -3.047533043453416024e+00
3.643302618573059259e+00 1.553098073628218279e+00 -3.069114617107717269e+00
3.623342679513345210e+00 1.551709698191167330e+00 -3.070510836590420567e+00
3.620315731436788642e+00 1.556118195912556956e+00 -3.033986577602167500e+00
3.615356601338268749e+00 1.566369440893875087e+00 -2.950598448208004765e+00
3.615360519837660380e+00 1.570373851489174077e+00 -2.920768033783965656e+00
3.609583542028922842e+00 1.569108082543523963e+00 -2.920528477426006742e+00
3.578823580573462060e+00 1.562325203034524490e+00 -2.921517632687139265e+00
3.497900021399379167e+00 1.544546111070838501e+00 -2.923441655701920716e+00
3.480092668158295321e+00 1.539997031065055477e+00 -2.927774634032300316e+00
3.478918057417732967e+00 1.534227779443608108e+00 -2.968273783776712360e+00
3.475560384046330054e+00 1.541881311598811033e+00 -2.906623716337702223e+00
3.472350348242930984e+00 1.539860545878461995e+00 -2.915892164546073140e+00
3.473066798605747962e+00 1.529371512455142357e+00 -2.993657707138023927e+00
3.473084119737075870e+00 1.521129693569481356e+00 -3.055161127060939119e+00
3.471387297496819624e+00 1.526132579005673673e+00 -3.015958358343902912e+00
3.469193320865489039e+00 1.527100071178264296e+00 -3.006611398187578832e+00
3.467183253320938352e+00 1.527533787831939049e+00 -3.001316797594090424e+00
3.463782952053725328e+00 1.517175959797924412e+00 -3.076835983674728325e+00
3.463583351335605798e+00 1.510174553677750442e+00 -3.020738729128841893e+00
3.461416031020213779e+00 1.515394876398472812e+00 -2.979374018391296897e+00
3.458997730657917380e+00 1.517219416731776516e+00 -2.962725654032805078e+00
3.461517973130027404e+00 1.523785015958369904e+00 -2.917907364266126180e+00
3.460109573968815688e+00 1.523464602737898410e+00 -2.917959659990527310e+00
3.461399582938562869e+00 1.514289119975406495e+00 -2.987531776913258774e+00
3.452363288811363784e+00 1.510196069874192304e+00 -3.008861364542529948e+00
3.455893556757379415e+00 1.504204749832804833e+00 -2.957196004183243687e+00
3.446056820644699759e+00 1.508698236279369276e+00 -3.014933420119625396e+00
3.439829984466529655e+00 1.512099739729969805e+00 -3.046567780034365569e+00
3.437282893862624533e+00 1.514525464552239464e+00 -3.024431477291954717e+00
3.438917708797969208e+00 1.498275590715313355e+00 -2.894326312384134070e+00
3.440374569992051601e+00 1.484458439820929287e+00 -2.790173526251757075e+00
3.435870707122975265e+00 1.481112223926559723e+00 -2.774634813368973330e+00
3.436902539666546907e+00 1.474102587252056784e+00 -2.827941674346451606e+00
3.438185751958039216e+00 1.471407710029163596e+00 -2.851422156957350129e+00
3.447008858141914267e+00 1.479733406517427019e+00 -2.915394061158010697e+00
3.429190538805314770e+00 1.477162933493667341e+00 -2.925823015988098685e+00
3.427534065045584111e+00 1.491576701860108267e+00 -3.038296377734776232e+00
3.433714364477765013e+00 1.492558640503249379e+00 -3.040855187783895186e+00
3.432263974474978774e+00 1.498263525162587095e+00 -3.085314604889200396e+00
3.449399683821436025e+00 1.499294804522913971e+00 -3.085499919226182275e+00
3.452644551870183154e+00 1.494677523975320721e+00 -3.048557261849698108e+00
3.446952814545752641e+00 1.480273728247064824e+00 -2.945568499898261638e+00
3.448552927258200285e+00 1.463269962511132061e+00 -2.816407841026342673e+00
3.449298395276355844e+00 1.462898862900405605e+00 -2.812583217910549660e+00
3.440593939838118231e+00 1.447328772753460946e+00 -2.725033062528284145e+00
3.432743750435732544e+00 1.443129667246812575e+00 -2.719370702180858856e+00
3.446267901352566998e+00 1.440699641114618235e+00 -2.784060188129361624e+00
3.446914222742246459e+00 1.441085522237086414e+00 -2.936907975345039556e+00
3.444092836012925485e+00 1.450902062359812117e+00 -3.015908366092085124e+00
3.441272198817279637e+00 1.454157925531803119e+00 -2.983723558649346241e+00
3.440516157466427583e+00 1.454143480277319211e+00 -2.983040789083803546e+00
3.435285960401141203e+00 1.468147029667628445e+00 -2.848308435604627764e+00
3.433314391860524228e+00 1.473998020867556269e+00 -2.962494773850755880e+00
3.432657568107210011e+00 1.473069632994990164e+00 -2.975398171603614195e+00
3.427400089104323921e+00 1.481554190142503113e+00 -2.901430243694766098e+00
3.426288059274442688e+00 1.481463478627593977e+00 -2.901110931401483128e+00
3.426082914920153932e+00 1.479310077188817019e+00 -2.918845018347470344e+00
3.420754869213652682e+00 1.490097397821548375e+00 -2.824971084869819293e+00
3.420444551373032827e+00 1.490329431589227926e+00 -2.821621947415071663e+00
3.423841876194782419e+00 1.491751493144753304e+00 -2.809531530628636808e+00
3.422532434065175266e+00 1.492102571751591222e+00 -2.801761025181770393e+00
3.420480357519150694e+00 1.492286056295207608e+00 -2.793452982024744902e+00
3.416265272672898146e+00 1.491930038818443771e+00 -2.782741757240190239e+00
3.411985823997703005e+00 1.491803519311255988e+00 -2.769630593234169602e+00
3.411441042317541417e+00 1.486157779665066903e+00 -2.810852591337058115e+00
3.411218977583693412e+00 1.479941086786543680e+00 -2.857035835283028735e+00
3.411229293507058280e+00 1.471292543316488954e+00 -2.922354544710123569e+00
3.408174400773610557e+00 1.464387629925774537e+00 -2.970982717288204622e+00
3.407360845615382328e+00 1.464170596538900915e+00 -2.972076791586099276e+00
3.400686502089525831e+00 1.472678643181032809e+00 -2.895694725773116485e+00
3.399029564119959268e+00 1.472318318247603397e+00 -2.896940038014237384e+00
3.398480317717828658e+00 1.472184319644991302e+00 -2.895766124130872310e+00
3.368743740369630313e+00 1.477960512262630477e+00 -2.781977875693049107e+00
3.362437597077330587e+00 1.484200919749659286e+00 -2.718613025249638326e+00
3.363312556711973489e+00 1.473695306836523278e+00 -2.798339696738671556e+00
3.361604140413320785e+00 1.453320145735282232e+00 -2.946661464520242024e+00
3.360621222463306523e+00 1.452852515782370624e+00 -2.949426554624502650e+00
3.356682634880073568e+00 1.453542852529312812e+00 -2.936788551066703779e+00
3.356600018649514183e+00 1.449897024710369520e+00 -2.965933307348979753e+00
3.355050647043788192e+00 1.449522903134605523e+00 -2.967775889250301002e+00
3.351279190707721956e+00 1.455154118862807211e+00 -2.918435016853230479e+00
3.343377047728655516e+00 1.460835284232217424e+00 -2.860415337767191701e+00
3.342498703067663612e+00 1.456670899295518851e+00 -2.891324755597488139e+00
3.341025776315103446e+00 1.438315815367231298e+00 -3.028348230627732285e+00
3.339462412452325779e+00 1.436136618824991329e+00 -3.044621911676475445e+00
3.326614906487343148e+00 1.449534932368089057e+00 -2.926794544601258874e+00
3.318017908889875134e+00 1.466289647092088755e+00 -2.784656829546438228e+00
3.310823942492846061e+00 1.459717981261644537e+00 -2.814971807797890690e+00
3.304599087601820528e+00 1.468752284314334577e+00 -2.732012730795999378e+00
3.294967133251368807e+00 1.460619736991197737e+00 -2.762389762309807928e+00
3.295014267024062971e+00 1.451681659229907773e+00 -2.827617943765620367e+00
3.296206851733113563e+00 1.436229174969084976e+00 -2.945050781965738551e+00
3.293500174846855977e+00 1.427769372851171115e+00 -3.006101024090636287e+00
3.290107942388110551e+00 1.419564098168129451e+00 -3.066322657727758472e+00
3.278237240328591984e+00 1.418670154803631567e+00 -3.065053479317294105e+00
3.248999433724151231e+00 1.426774161935459917e+00 -2.980174951188404808e+00
3.239336342962933379e+00 1.442069288642923608e+00 -2.849189771584021535e+00
3.233739196111865777e+00 1.451410952567279811e+00 -2.767298543039290237e+00
3.209826694054805696e+00 1.442161536671966227e+00 -2.767474523630685468e+00
3.203081846087298512e+00 1.430863042209235880e+00 -2.830972720162260092e+00
3.193994036618331922e+00 1.437633137135012840e+00 -2.757871035970425044e+00
3.193091981566047899e+00 1.433917655855942108e+00 -2.782766243529309236e+00
3.175756405731148035e+00 1.434328037506364284e+00 -2.729503138133314355e+00
3.172799968178082075e+00 1.432553097184997126e+00 -2.733125927159021806e+00
3.169923201145751879e+00 1.432255248019230987e+00 -2.725941762626447940e+00
3.168883662480827645e+00 1.431819665980360590e+00 -2.725695519990204652e+00
3.158610144585059398e+00 1.431035971908576787e+00 -2.698459456827724701e+00
3.145703671044073335e+00 1.424648988434471963e+00 -2.700381098686343240e+00
3.145760611857579381e+00 1.407240029947255833e+00 -2.823153249081243654e+00
3.146636465407012917e+00 1.396156305915392304e+00 -2.906324431148278542e+00
3.155513430901400351e+00 1.397124648290562599e+00 -2.914388803012676998e+00
3.145470691701165666e+00 1.393084673013453179e+00 -2.902100172251389942e+00
3.123466968258106213e+00 1.387426747073278399e+00 -2.900212455845442516e+00
3.119132114716292037e+00 1.378057126647326713e+00 -2.963228312570951317e+00
3.116867822337684224e+00 1.377473249074457673e+00 -2.963279085036983229e+00
3.109001312434043207e+00 1.372063514982440502e+00 -2.933323830262122289e+00
3.107038129817630168e+00 1.365251214053543771e+00 -2.880448033564799726e+00
3.110102203060522097e+00 1.356031939280364140e+00 -2.956097228715386827e+00
3.120387582640650415e+00 1.358853259715076645e+00 -2.969257374792543924e+00
3.123769302027503247e+00 1.340745981896848571e+00 -2.817573373176332829e+00
3.117717104980379350e+00 1.332656565300333940e+00 -2.774469212059135881e+00
3.107842593338268955e+00 1.329026980572251437e+00 -2.775678116822377195e+00
3.099423215430565204e+00 1.333072227903276730e+00 -2.825233315812246460e+00
3.079686192817995494e+00 1.326630717398239678e+00 -2.825387528301998685e+00
3.056462715358783555e+00 1.319930380143554904e+00 -2.832441168000790377e+00
3.051482462261568607e+00 1.326587505238203013e+00 -2.893277582803801096e+00
3.047456941943287312e+00 1.332897391736596049e+00 -2.837549383698768857e+00
3.043832477247445212e+00 1.332970094646073189e+00 -2.828106548137558907e+00
3.042775860743121008e+00 1.334332623858383249e+00 -2.815240596875820067e+00
3.040860501608250388e+00 1.337257978894222710e+00 -2.789117749008397595e+00
3.014089634005294283e+00 1.327547052970210029e+00 -2.790928752163999160e+00
3.010154923939195371e+00 1.332590917748087467e+00 -2.743902783945621593e+00
3.000765389943444106e+00 1.328658976130395741e+00 -2.743900680461892172e+00
2.995568749871982739e+00 1.326584397230510914e+00 -2.742834609659058565e+00
2.966109560641926546e+00 1.314226190993257548e+00 -2.744474512380604914e+00
2.960260599799064085e+00 1.320867391745685682e+00 -2.679006199334108995e+00
2.958821552152584022e+00 1.320791266008071840e+00 -2.674192830246500563e+00
2.952438557953746212e+00 1.317516733079364233e+00 -2.675437360184979685e+00
2.942574440235986799e+00 1.312540526442688371e+00 -2.676058389304345475e+00
2.938271772027580386e+00 1.310357056167396950e+00 -2.676717150607610840e+00
2.936858915943675097e+00 1.309614901987644631e+00 -2.677086241993855253e+00
2.931823854512027872e+00 1.307059103494643493e+00 -2.677953860849402012e+00
2.928280018558021336e+00 1.305276708574190092e+00 -2.678569701508916712e+00
2.924304347611871968e+00 1.310435514805979196e+00 -2.628657791038402802e+00
2.920923315444670099e+00 1.308735816039358513e+00 -2.628009698685400242e+00
2.894366597303502875e+00 1.293874713156476952e+00 -2.629651143873151575e+00
2.880984611642888105e+00 1.285075924031399364e+00 -2.638947502528547595e+00
2.880125130093335706e+00 1.282423184755187018e+00 -2.654400490936303036e+00
2.882031827654688794e+00 1.268747189981379586e+00 -2.755862726187957801e+00
2.883035320701220705e+00 1.259615457484327905e+00 -2.824413878424236302e+00
2.871303966464984203e+00 1.266312354409103280e+00 -2.745851594167573850e+00
2.864293102687835546e+00 1.268611351582486391e+00 -2.707616608418859983e+00
2.865545626392679956e+00 1.258428181711881200e+00 -2.783766239294813261e+00
2.864116060186667312e+00 1.257792191266811521e+00 -2.784072875168180694e+00
2.859327281398491571e+00 1.256184178972167276e+00 -2.782108708215958348e+00
2.853176263921126221e+00 1.262768710123133964e+00 -2.717367883450631627e+00
2.847351775054581591e+00 1.269715609012853408e+00 -2.650101349252054206e+00
2.843819812020978777e+00 1.253228910378888505e+00 -2.750143737827616786e+00
2.842372459109163252e+00 1.249221560449192525e+00 -2.774430611515785738e+00
2.843179159426402425e+00 1.243402912761333523e+00 -2.818227157800721638e+00
2.832132317189756776e+00 1.243416954575151889e+00 -2.790411523361052915e+00
2.833576921214769229e+00 1.227225197840008164e+00 -2.912230843656949730e+00
2.836832510232597304e+00 1.208260195830700434e+00 -3.058231264066821442e+00
2.837076580102548373e+00 1.208075572277782728e+00 -3.058397404856763924e+00
2.815028178303229378e+00 1.205782232085220729e+00 -3.055168339338229622e+00
2.792659535805158022e+00 1.203860121801841654e+00 -3.054949414073383718e+00
2.779725467986940757e+00 1.204002573854372704e+00 -3.045136875327951298e+00
2.774476279954391611e+00 1.212437071525264365e+00 -2.976092314601478606e+00
2.766853430098491717e+00 1.226008457127638396e+00 -2.862196495673147378e+00
2.759113765004387542e+00 1.229737262282254218e+00 -2.817776063129163955e+00
2.755993811297333895e+00 1.228932045293607889e+00 -2.815923737204016231e+00
2.736629131507275048e+00 1.221733457266964917e+00 -2.821998728640399801e+00
2.734842458077430205e+00 1.209809696289153136e+00 -2.904625089710583641e+00
2.730185559812386753e+00 1.217513073613768704e+00 -2.839427378093906107e+00
2.729029627762706856e+00 1.218356980151701574e+00 -2.830820664476858983e+00
2.725470904660217464e+00 1.209632747092404648e+00 -2.886029169495426316e+00
2.721133415395651234e+00 1.213989445487627217e+00 -2.845824278360037596e+00
2.720894749790662814e+00 1.204583367600649435e+00 -2.913320232770309826e+00
2.717833489782077283e+00 1.211082028819578271e+00 -2.860469591075750273e+00
2.712321181229296663e+00 1.218911670933939151e+00 -2.791286413528743626e+00
2.709798813228847525e+00 1.205170203491430891e+00 -2.884975626007018512e+00
2.703471027059751730e+00 1.217990409695037579e+00 -2.776891748299338936e+00
2.702091532209147218e+00 1.222817115394501331e+00 -2.737665287853299212e+00
2.704208321810281035e+00 1.212146533484698585e+00 -2.826280900827272013e+00
2.689160163557230643e+00 1.207130151733550205e+00 -2.838051768099169259e+00
2.686682033386031065e+00 1.205207041004235702e+00 -2.829768976944325942e+00
2.686235035790919046e+00 1.197998090844460295e+00 -2.778952532648566454e+00
2.688790081493049655e+00 1.194603020916590985e+00 -2.810119449197314268e+00
2.691680774532443809e+00 1.184915312068023585e+00 -2.733552227079258934e+00
2.690240872803010497e+00 1.183847669489311860e+00 -2.732849308783414255e+00
2.689841071067106792e+00 1.183688405392943288e+00 -2.732478947411382642e+00
2.686051917523869736e+00 1.181769846037864502e+00 -2.729939055165350403e+00
2.690229568737492194e+00 1.177501004834027309e+00 -2.773147084195566325e+00
2.699998624616821719e+00 1.181259040415868045e+00 -2.773771562817762160e+00
2.701823541716086297e+00 1.172881743876441618e+00 -2.709800876114604407e+00
2.701674840224866703e+00 1.172468361018305760e+00 -2.707421594568408807e+00
2.701787667980664942e+00 1.171348750136212979e+00 -2.699470975450389609e+00
2.714486318038316526e+00 1.177280964943425712e+00 -2.701972561330278744e+00
2.710646748357842473e+00 1.191185219760259706e+00 -2.810629554063983626e+00
2.709340913854769273e+00 1.192142846023813263e+00 -2.820600288740977568e+00
2.704740592793296372e+00 1.206502703606549876e+00 -2.935683072272060379e+00
2.695112104476994563e+00 1.204873594975394147e+00 -2.938767695043401851e+00
2.706763220833555916e+00 1.207699377856908285e+00 -2.935308638479531052e+00
2.705554802311705309e+00 1.213806131884391348e+00 -2.982989397701655498e+00
2.726899406366583900e+00 1.217561326451666259e+00 -2.981803428422947544e+00
2.733879873642942382e+00 1.214645638612132039e+00 -2.950995077753589602e+00
2.738068974205067008e+00 1.200056562441238039e+00 -2.834990966391401468e+00
2.740144588840353279e+00 1.194524798306382918e+00 -2.789916134498851452e+00
2.742159393499754572e+00 1.195120923253642387e+00 -2.789292940398135467e+00
2.755116635536773106e+00 1.200126908682108917e+00 -2.791617171963681976e+00
2.753942801012200903e+00 1.203874715568673981e+00 -2.822136165079552672e+00
2.754247834361620573e+00 1.199834548920278410e+00 -2.790991635234612467e+00
2.754654595966167463e+00 1.200591111490537877e+00 -2.796335624049002710e+00
2.755171376025844054e+00 1.202066633938039475e+00 -2.806355030004975326e+00
2.753876792661583472e+00 1.209897482681326464e+00 -2.866958274186233169e+00
2.753375630807626706e+00 1.213382204083676141e+00 -2.894270911811407831e+00
2.753459511776282120e+00 1.214118761528826251e+00 -2.900277578172644422e+00
2.753498992936383338e+00 1.214121542666814824e+00 -2.900539918456054966e+00
2.760623361855954805e+00 1.208504783643988612e+00 -2.845179591876558334e+00
2.764009230324401933e+00 1.198004092501017581e+00 -2.760261765822331625e+00
2.767576586453007970e+00 1.199184027201878777e+00 -2.759626065704783748e+00
2.769713652181172936e+00 1.204391243816119506e+00 -2.791529567160246472e+00
2.768483137490034718e+00 1.210469983229812918e+00 -2.839451878789875039e+00
2.767773355020211046e+00 1.213447096333631015e+00 -2.863673057779019260e+00
2.763563918665756791e+00 1.220883238667679782e+00 -2.928014251475126173e+00
2.756317860430070432e+00 1.226365970573999542e+00 -2.873252624729309090e+00
2.750590499640978237e+00 1.230529361297660218e+00 -2.827103049948294533e+00
2.754611337703097185e+00 1.221555045328584388e+00 -2.715831091177744128e+00
2.755683432853250014e+00 1.219894679696040374e+00 -2.699490854907966142e+00
2.757523122970680252e+00 1.229020272391085022e+00 -2.762677686567156954e+00
2.754351050597843464e+00 1.232806803604639123e+00 -2.799534303448131034e+00
2.750388126229329711e+00 1.235426083179353096e+00 -2.712149700955760245e+00
2.751731630168737119e+00 1.228482542484948814e+00 -2.822871571094029086e+00
2.744356789222322845e+00 1.238426189670896349e+00 -2.712726036930271700e+00
2.742717086344353739e+00 1.239328522066316385e+00 -2.652712773411928904e+00
2.736582969203545268e+00 1.241897300968299422e+00 -2.545081356027146136e+00
2.736268808323707891e+00 1.241895244634509510e+00 -2.543165244237860279e+00
2.742905791401428761e+00 1.227413387259909783e+00 -2.665866742688702828e+00
2.743915986926900974e+00 1.217906109932800129e+00 -2.736368670645572543e+00
2.748661034770376599e+00 1.198893872649378300e+00 -2.887651631917516948e+00
2.729927291119798038e+00 1.177934856456089419e+00 -3.020227764933175241e+00
2.728991746462490653e+00 1.178135201598401682e+00 -3.016071430686529276e+00
2.725251100864147347e+00 1.187095573665915671e+00 -2.942389045953993421e+00
2.716359958467691627e+00 1.202530960493937373e+00 -2.808835410919297004e+00
2.706730775360596031e+00 1.207117871392597186e+00 -2.748838544356933422e+00
2.699629109385546233e+00 1.210607478192016417e+00 -2.701467104624727611e+00
2.699906950617061874e+00 1.203098308175441833e+00 -2.756962112280177735e+00
2.673877610693506934e+00 1.183720230564337283e+00 -2.830253453792815677e+00
2.670992523417368592e+00 1.182986830560888158e+00 -2.827297560960516876e+00
2.667632681083747848e+00 1.181903316526476955e+00 -2.827565290591058655e+00
2.667017692720549338e+00 1.178028723119292742e+00 -2.855754297877942882e+00
2.660667738929602066e+00 1.188702276583187167e+00 -2.760362650657794070e+00
2.650799592435363561e+00 1.203282245777831161e+00 -2.626579690060398597e+00
2.646817273066887743e+00 1.201193310682628246e+00 -2.625685977160387985e+00
2.648098691421453044e+00 1.189081696579191716e+00 -2.713502557092994927e+00
2.642729284804195888e+00 1.195958769607283312e+00 -2.646887127831258013e+00
2.636533451337844891e+00 1.202551012139434938e+00 -2.578840146880191142e+00
2.635220979030679533e+00 1.201006144510513796e+00 -2.584713355642233701e+00
2.634322033662868101e+00 1.196049947679464154e+00 -2.614381916723130583e+00
2.636670059266579713e+00 1.186139890738181935e+00 -2.690326065526763788e+00
2.636230723861572312e+00 1.173558682804181075e+00 -2.777989660141404915e+00
2.636629452412892149e+00 1.158241628700487968e+00 -2.891035874968265862e+00
2.635050310669079465e+00 1.154506428018617470e+00 -2.916556176092091945e+00
2.634936992209417461e+00 1.150005810627846570e+00 -2.950620291460047451e+00
2.634910246531244393e+00 1.140004069387164920e+00 -3.026374836957265835e+00
2.632764076236120410e+00 1.139475393212658227e+00 -3.028052759260872584e+00
2.620687253086540380e+00 1.138120258295767240e+00 -3.027310687471354900e+00
2.583944880646431574e+00 1.135623581610220922e+00 -3.012628122997356162e+00
2.579803125489152027e+00 1.140063834954522015e+00 -2.973711646973996814e+00
2.560318555988870592e+00 1.152332632873494411e+00 -2.847717562068002195e+00
2.552946833084123401e+00 1.160259392612180029e+00 -2.772120634694434926e+00
2.542922230639684589e+00 1.156395097409708139e+00 -2.772389382225484589e+00
2.540832538461210710e+00 1.155546964467935034e+00 -2.772707232755828421e+00
2.536969282015864469e+00 1.157564375556363601e+00 -2.747236507904298630e+00
2.527417905094273110e+00 1.153468049240863547e+00 -2.748772301773230176e+00
2.519047383727580414e+00 1.147979609331391870e+00 -2.763413710386714239e+00
2.516087826470992272e+00 1.152211602353859332e+00 -2.724597180226355331e+00
2.510240385965981869e+00 1.158738319614394108e+00 -2.660325661626509852e+00
2.499538718795390135e+00 1.153264372113055991e+00 -2.659750918968041500e+00
2.495194549382620863e+00 1.150708866826663179e+00 -2.661711618941919433e+00
2.495740548476738319e+00 1.132895821267547287e+00 -2.786390995766556244e+00
2.495973450411809402e+00 1.128235424635067430e+00 -2.820229838496465913e+00
2.489849930215886964e+00 1.126479096853418627e+00 -2.817655595797366797e+00
2.485291669977911511e+00 1.129024146518077920e+00 -2.787835803756438580e+00
2.484051158383258961e+00 1.120631208150922431e+00 -2.845542599999805855e+00
2.466195013186641471e+00 1.126236268706820809e+00 -2.761713421974843818e+00
2.461283531998363028e+00 1.132301580852987266e+00 -2.704884799941395634e+00
2.457643637821736782e+00 1.134733572216881425e+00 -2.676682132591509333e+00
2.446158299190896113e+00 1.136671989492494372e+00 -2.622048395509920304e+00
2.432255169266572370e+00 1.128776317964987008e+00 -2.622423809522985927e+00
2.424943443654476560e+00 1.112734300008731525e+00 -2.701192591654539399e+00
2.424321760131534997e+00 1.112248956672463596e+00 -2.702445634100034688e+00
2.421211417902532581e+00 1.116699535190179171e+00 -2.662236875323301000e+00
2.424069562156727642e+00 1.105840921011189915e+00 -2.745415042020620255e+00
2.423428679619243464e+00 1.105418234121421595e+00 -2.746518027762395953e+00
2.432293318702909435e+00 1.100177869339310055e+00 -2.806649079660415769e+00
2.426085956590936732e+00 1.096107541599081525e+00 -2.792992570151702658e+00
2.408379786063666206e+00 1.089622308745560986e+00 -2.792334439709324823e+00
2.403382802357725279e+00 1.086846262426807375e+00 -2.799382238054494376e+00
2.398746359536984230e+00 1.093479997003756754e+00 -2.740156871024518104e+00
2.400044120782677926e+00 1.088812985812151135e+00 -2.776538591812456769e+00
2.397208275091724516e+00 1.090465474192126916e+00 -2.757108232307747375e+00
2.398974679784832365e+00 1.081278569575967685e+00 -2.827646184207095015e+00
2.398764194071627998e+00 1.073326015739907380e+00 -2.886102027131240533e+00
2.389203838212663911e+00 1.088592521030283811e+00 -2.745502750288474569e+00
2.386774102363474093e+00 1.088161531755371447e+00 -2.742290898281563916e+00
2.385943211407276721e+00 1.088301884861559321e+00 -2.745756601654791407e+00
2.385414214800964938e+00 1.080875407946249700e+00 -2.695702445029438898e+00
2.385390832953009355e+00 1.076728989950012316e+00 -2.667865645317942125e+00
2.385079392979790214e+00 1.074537055419534815e+00 -2.654341982134288624e+00
2.379835300321372138e+00 1.074551489926564907e+00 -2.672606053210448973e+00
2.375489763204736260e+00 1.082745033116236044e+00 -2.742207278554293470e+00
2.373297884338473995e+00 1.089483410682208664e+00 -2.796055310656400561e+00
2.372695387760919594e+00 1.089460168604637458e+00 -2.796696099215009390e+00
2.366496140407577720e+00 1.092919693229726263e+00 -2.837428996062240305e+00
2.371913331851633888e+00 1.095508192848885010e+00 -2.831167516571218012e+00
2.378255013145095020e+00 1.093135054935076678e+00 -2.799304886880747745e+00
2.382912660143125638e+00 1.081926786118705408e+00 -2.706673873149842979e+00
2.385125484199317469e+00 1.072772991228884587e+00 -2.636677148358526068e+00
2.380865824557891752e+00 1.070081610134434369e+00 -2.634479048376955568e+00
2.384117136235870404e+00 1.071877217274336047e+00 -2.634781610035710209e+00
2.383978008506533630e+00 1.069391236942994983e+00 -2.618702851790754238e+00
2.392606119559630873e+00 1.074293755730652000e+00 -2.618468358733071710e+00
2.410576277603302398e+00 1.088652213217277565e+00 -2.645675203917037699e+00
2.404543249165005392e+00 1.107785717187923735e+00 -2.798013403587223724e+00
2.392739361634444784e+00 1.110723233760093409e+00 -2.845980682303749454e+00
2.403504122899897233e+00 1.114669111433828297e+00 -2.841153371101211356e+00
2.401994781267474455e+00 1.120275688825835170e+00 -2.885683056391350476e+00
2.427007664478483040e+00 1.126929726236860496e+00 -2.884722764591125976e+00
2.439632825312028519e+00 1.120945228860951826e+00 -2.815580140649849294e+00
2.448183056086754128e+00 1.105040387232312904e+00 -2.677903091277753500e+00
2.445009092684542029e+00 1.092283559196311593e+00 -2.606373926693222209e+00
2.464325167327198862e+00 1.102298691414508092e+00 -2.614787764587427787e+00
2.472668040504197862e+00 1.107174339513657069e+00 -2.615404307775108350e+00
2.476888119070919103e+00 1.109631179965438585e+00 -2.616075086989345877e+00
2.479507310662434794e+00 1.111172093402843730e+00 -2.617052041606622748e+00
2.487346860011403038e+00 1.120914131412048764e+00 -2.653449129518933525e+00
2.473830777730049668e+00 1.130709459040704079e+00 -2.765199950165158516e+00
2.470950673307160894e+00 1.140322855058673923e+00 -2.842910685976296925e+00
2.455196401832474340e+00 1.141871839774390107e+00 -2.887764914042740827e+00
2.450608901775071846e+00 1.155363274686627584e+00 -2.779153567279170289e+00
2.439802848740581176e+00 1.167444110409664226e+00 -2.659676064994820344e+00
2.438336668981357036e+00 1.167730496268667872e+00 -2.651027893529335877e+00
2.437928269796895808e+00 1.165347576906097693e+00 -2.667820179218252541e+00
2.440764454501600955e+00 1.152905327046972017e+00 -2.784605150724712264e+00
2.439062561403845919e+00 1.152043995183792635e+00 -2.789553740144262051e+00
2.431965505948786799e+00 1.149417480592475727e+00 -2.789735063908085344e+00
2.426822707039803628e+00 1.155157828660170471e+00 -2.732579305532674585e+00
2.422891452485722574e+00 1.159787055396371835e+00 -2.686573294189999572e+00
2.425390307318368688e+00 1.148856448263315899e+00 -2.773628656061983833e+00
2.424877170628351841e+00 1.148406351451184859e+00 -2.774339638411004394e+00
2.422007692626185094e+00 1.147317360332380742e+00 -2.774016879251294032e+00
2.416453835357135649e+00 1.145158414901986221e+00 -2.776018994641101134e+00
2.409152402970628604e+00 1.156476391574897233e+00 -2.671891802720067322e+00
2.400889256902076330e+00 1.164931689861797404e+00 -2.583343148619669183e+00
2.399444385784404776e+00 1.164141545145198409e+00 -2.584593693066788767e+00
2.402062503198613808e+00 1.155694206593191220e+00 -2.651707129379956562e+00
2.401095776607516274e+00 1.155048511294221703e+00 -2.654273718166866303e+00
2.401858084011087247e+00 1.146821231907322103e+00 -2.714394194937597593e+00
2.400970257291833221e+00 1.143591560458734557e+00 -2.735266929591068319e+00
2.397868743871292896e+00 1.142209086798746220e+00 -2.735275592629121455e+00
2.389405590763939546e+00 1.143798277575510891e+00 -2.696234022012387932e+00
2.376986654829355672e+00 1.147952063748298501e+00 -2.622958746353636350e+00
2.376944857982257631e+00 1.141109112115856750e+00 -2.670624414581577621e+00
2.375791833250228802e+00 1.140288364182717729e+00 -2.673108496522366373e+00
2.366192904482925297e+00 1.151339678781810649e+00 -2.560324453715429271e+00
2.358903440979978505e+00 1.157983208826891097e+00 -2.485660150519251044e+00
2.359958929344687650e+00 1.149593978480824896e+00 -2.544107264254638068e+00
2.365253236826691197e+00 1.131772571509121583e+00 -2.683689762742837104e+00
2.365644272747815080e+00 1.114496247121334216e+00 -2.807578066511220882e+00
2.360916092331670324e+00 1.121002710494551247e+00 -2.746581646692484391e+00
2.352339140694069908e+00 1.129859043144545216e+00 -2.656410011984025044e+00
2.347972972970202576e+00 1.133588993832087555e+00 -2.614315102939986701e+00
2.337088277440865891e+00 1.142101905109375037e+00 -2.512975593908353567e+00
2.337408888055709788e+00 1.136040933239573558e+00 -2.554045212654879382e+00
2.336341228332341036e+00 1.134725260503807398e+00 -2.558989664970579447e+00
2.331022422357495127e+00 1.136171182564274185e+00 -2.525381986927119016e+00
2.333835598056262395e+00 1.126648593729390857e+00 -2.601159425038535922e+00
2.330942686911415151e+00 1.124613117423372222e+00 -2.603441791299270225e+00
2.334272799757966865e+00 1.111344362674040687e+00 -2.707446208830750045e+00
2.332295285524347506e+00 1.103132404985744053e+00 -2.759913406222108900e+00
2.329497785781185382e+00 1.098402736675706759e+00 -2.786851000827765379e+00
2.328549997584587139e+00 1.097912439335150925e+00 -2.787151868618871209e+00
2.316605506954260374e+00 1.108599505030121612e+00 -2.676169880585923977e+00
2.303588632663802649e+00 1.124948110635693332e+00 -2.517077227187948907e+00
2.304098375356578909e+00 1.117223806795777152e+00 -2.569506571790407090e+00
2.272336584489608846e+00 1.084202978258037131e+00 -2.667487111254427834e+00
2.270306586875836530e+00 1.082568183795033612e+00 -2.670689171905235693e+00
2.266400766277495649e+00 1.082179107956513064e+00 -2.659020819271851188e+00
2.266094847366883602e+00 1.077901233580964346e+00 -2.688030344256236326e+00
2.266456859535476376e+00 1.072206224546398801e+00 -2.728666130479286966e+00
2.267343615636031373e+00 1.060095448570423038e+00 -2.817358327188897782e+00
2.262175731667563916e+00 1.058125172281923598e+00 -2.818976651499576214e+00
2.238051668245493619e+00 1.050001616131753135e+00 -2.817731380443559974e+00
2.227570080515178574e+00 1.057127230967119358e+00 -2.739621843889715969e+00
2.217928668448839513e+00 1.070404186869668761e+00 -2.616133923535354455e+00
2.217231444672838059e+00 1.070049630030631693e+00 -2.615834976582428695e+00
2.201830557845263492e+00 1.061082994065877472e+00 -2.616150594962182829e+00
2.189520388677970608e+00 1.053293929622043823e+00 -2.620505506884586389e+00
2.189196721956461644e+00 1.050571294840703329e+00 -2.637351436837104934e+00
2.176202878144583686e+00 1.062718382365481329e+00 -2.505180983242424553e+00
2.174784785373670815e+00 1.062445897951658891e+00 -2.500470845618459226e+00
2.167219596722238961e+00 1.056832772253905262e+00 -2.500129736042135065e+00
2.158340109208582991e+00 1.050196043029525184e+00 -2.500224516931965901e+00
2.146581984044807712e+00 1.039453553906302119e+00 -2.512283826668743281e+00
2.141222180637320172e+00 1.044116551719209030e+00 -2.459446891629479381e+00
2.135852251287905457e+00 1.036873004641484686e+00 -2.476386351334131319e+00
2.145439159590049716e+00 1.021047045858523461e+00 -2.616350386524494809e+00
2.153489053458623292e+00 1.025552032876993591e+00 -2.617426268032156056e+00
2.151003447843088168e+00 1.027281537512204856e+00 -2.591241109206230409e+00
2.148169448950840277e+00 1.020266826714985919e+00 -2.556944885803935197e+00
2.162314022819459503e+00 1.025664527494395406e+00 -2.581043787232468301e+00
2.166333761803098223e+00 1.017038019307151986e+00 -2.654406618564273845e+00
2.164476044395276855e+00 1.015944137089437760e+00 -2.654680435921912718e+00
2.167088422821917160e+00 1.008304625717849623e+00 -2.720002722233030745e+00
2.166313086146561151e+00 1.007912956907357493e+00 -2.719609527017249118e+00
2.166653708042621584e+00 1.002789714366567164e+00 -2.759808425792126929e+00
2.164239670778324243e+00 9.910350208548663886e-01 -2.842258254619220104e+00
2.162025962759857478e+00 9.942630909305134601e-01 -2.811618401471621453e+00
2.150685484836292183e+00 1.010890158494678781e+00 -2.658466578634657740e+00
2.132955228335200015e+00 1.022566140031307302e+00 -2.510565384266921996e+00
2.130674220443601552e+00 1.024633020054932286e+00 -2.459428959277170534e+00
2.125985919135626734e+00 1.024665552687581638e+00 -2.423415621717632362e+00
2.120261433173322718e+00 1.023040760869916355e+00 -2.444253627772720705e+00
2.116246591995219806e+00 1.021072728661274409e+00 -2.455967121546522858e+00
2.114751978045845693e+00 1.019854486171814623e+00 -2.456765409455972993e+00
2.112842593649509215e+00 1.018303471758605028e+00 -2.457752064743005782e+00
2.108624250697280988e+00 1.018577455900991691e+00 -2.484624107565551743e+00
2.106243823164589024e+00 1.015788615725194299e+00 -2.555356669727661512e+00
2.108736536568085906e+00 1.006701764379752007e+00 -2.650712660073426985e+00
2.104689712024617076e+00 1.011005817394184936e+00 -2.606378216194457309e+00
2.103848757369848776e+00 1.010636798285769800e+00 -2.607044679564543888e+00
2.103866517568019567e+00 1.006362660510897733e+00 -2.654750193760252674e+00
2.106125027278266337e+00 9.982441192458599843e-01 -2.719146817354141543e+00
2.094732361587410274e+00 1.008677364953145528e+00 -2.604316521646413030e+00
2.081226700375945704e+00 1.017301435290471234e+00 -2.491347164374207779e+00
2.075093084171018898e+00 1.015367467093010623e+00 -2.506768142152676404e+00
2.069734247048012676e+00 1.016234556747739326e+00 -2.476141071247003111e+00
2.058091310155641729e+00 1.007346953182685745e+00 -2.476764283948273970e+00
2.041822411555361594e+00 9.947145677848453493e-01 -2.478371872110738838e+00
2.040219579612846612e+00 9.935549437140206441e-01 -2.477631469641523143e+00
2.032490532571759267e+00 9.932202299408124935e-01 -2.513172447719828284e+00
2.027997712202274982e+00 9.961653162914834159e-01 -2.552675923565765448e+00
2.027567982551167880e+00 9.917363299388918252e-01 -2.586164474279880832e+00
2.028560630075318727e+00 9.811732162015063263e-01 -2.660972495562505369e+00
2.025324893788615466e+00 9.650604012903218898e-01 -2.763596815906907977e+00
2.024465515742770894e+00 9.634647058604468572e-01 -2.773496981364005798e+00
2.014280916575559743e+00 9.781829463275932834e-01 -2.636803918989138573e+00
2.006011774665993563e+00 9.848360429299026775e-01 -2.559917244568061356e+00
2.004594772080091403e+00 9.839847413409041899e-01 -2.560083081119304271e+00
2.001937111104510780e+00 9.844356623180859911e-01 -2.544803182016770915e+00
1.986487290343071033e+00 9.737449803996247599e-01 -2.550486474627600586e+00
1.978373623605968357e+00 9.705484439986783451e-01 -2.534541740054840453e+00
1.967086193365258806e+00 9.802434912675397349e-01 -2.422638535720150976e+00
1.959908886634934788e+00 9.739929966590497035e-01 -2.423401331554233096e+00
1.943013470584495028e+00 9.578437546163616201e-01 -2.433686536272849921e+00
1.936937888222338922e+00 9.587796895698244004e-01 -2.396541462656459842e+00
1.938313568275944476e+00 9.427950541091870695e-01 -2.499263077893727925e+00
1.928918897213806050e+00 9.361396755796321800e-01 -2.495969099428139604e+00
1.926297986891382763e+00 9.359378074990194474e-01 -2.484445647101263255e+00
1.925082311712802419e+00 9.319384665613423824e-01 -2.504096581554592582e+00
1.925185770575983835e+00 9.233413443679799881e-01 -2.558417019790813374e+00
1.921840351547533743e+00 9.212437454663797709e-01 -2.556985256525607930e+00
1.902750863986008678e+00 9.250753985135249380e-01 -2.449302754616783595e+00
1.895607439005604133e+00 9.269644003055513837e-01 -2.402598375184993973e+00
1.885900695639192604e+00 9.180482538824800143e-01 -2.403248291877522647e+00
1.880229344008492065e+00 9.030091569983030864e-01 -2.460420040867234537e+00
1.886849168397429111e+00 8.841077402431164467e-01 -2.607554233922351195e+00
1.892476946159168616e+00 8.825324083601051584e-01 -2.638976928730763394e+00
1.893740214655602383e+00 8.832053780587101333e-01 -2.639206489879600159e+00
1.870655727226573806e+00 8.703981259966256934e-01 -2.638315127111331648e+00
1.849817299101257362e+00 8.640284438416274693e-01 -2.603874566723566986e+00
1.844728337806215146e+00 8.685582333802328581e-01 -2.554146848853976692e+00
1.838223893028951839e+00 8.742263018615501480e-01 -2.490074932473999247e+00
1.851765086555580364e+00 8.861914333543834399e-01 -2.481326761062161879e+00
1.848791142915536145e+00 8.784262853497405432e-01 -2.516377178410886817e+00
1.851178023148422724e+00 8.685878061974225961e-01 -2.589570670565961130e+00
1.845111602790279637e+00 8.643284370195543076e-01 -2.593437597205673573e+00
1.858411285841124139e+00 8.758012594709447818e-01 -2.571832904706889522e+00
1.850028627357291233e+00 8.846526258936179277e-01 -2.478739668248183925e+00
1.842613146639292987e+00 8.898692059202587545e-01 -2.410818030919395838e+00
1.838570167357528540e+00 8.882018229122485842e-01 -2.398513493423465093e+00
1.843096040820357828e+00 8.815511226276723233e-01 -2.461423600219845298e+00
1.835330548487840385e+00 8.845843587236238426e-01 -2.402900884932047898e+00
1.826963144196860789e+00 8.893767992506319553e-01 -2.331034766495569510e+00
1.824900215733120445e+00 8.875162986283466893e-01 -2.329510193508096627e+00
1.831684596577199953e+00 8.770842129469743620e-01 -2.425440062583065881e+00
1.841278790705285662e+00 8.635729408556994668e-01 -2.553033143825587992e+00
1.836655576642171495e+00 8.539297063151314315e-01 -2.597197300150786869e+00
1.837986832824573868e+00 8.487667627894905920e-01 -2.637178509834340101e+00
1.835155996689735725e+00 8.471698268956715516e-01 -2.636513546125091256e+00
1.827046207277268852e+00 8.450098546526382259e-01 -2.613929161906186405e+00
1.822197015895227201e+00 8.468171086782330104e-01 -2.582179356093464939e+00
1.805228906612817097e+00 8.389467280512958869e-01 -2.551392515561984986e+00
1.802255535873508840e+00 8.369784642461823854e-01 -2.549568359213200797e+00
1.802406064798830698e+00 8.340665704033941585e-01 -2.569926542423496496e+00
1.784442414655010634e+00 8.229980437977574281e-01 -2.543461748976645787e+00
1.773245389756270995e+00 8.266386367402243085e-01 -2.470066200866720685e+00
1.762293018653796395e+00 8.338418858899876440e-01 -2.372628918264893194e+00
1.765648617460988001e+00 8.271245884436527751e-01 -2.429244487659133256e+00
1.771057474792605557e+00 8.107116803300831176e-01 -2.554739009437176467e+00
1.760106343071108581e+00 8.103784391173837198e-01 -2.508372440027387906e+00
