4.500187209137706645e+00 1.499999238194992035e+00 3.141582659784043496e+00
4.485923263195691568e+00 1.500194487743234939e+00 -3.138644601318251848e+00
4.483098608088256221e+00 1.502875706534802625e+00 -3.116808927590553058e+00
4.467730387401755543e+00 1.503869383048000774e+00 -3.101996618820766383e+00
4.462083300224782612e+00 1.492461374535591023e+00 3.091403735741996339e+00
4.454291761791375315e+00 1.492766966173154630e+00 3.091787293580269491e+00
4.451510908680194056e+00 1.505695842794637418e+00 -3.086776823929470392e+00
4.446614659928380675e+00 1.522637368871536223e+00 -2.952048463594945993e+00
4.440696754036318694e+00 1.511133614494473365e+00 -3.035614918302761200e+00
4.437452085677719538e+00 1.496153611538326711e+00 3.133555475428052794e+00
4.425581656741204739e+00 1.500908304082124722e+00 -3.070647609510617215e+00
4.421080009677448963e+00 1.502802771316865904e+00 -3.052123518241559808e+00
4.402173183382469546e+00 1.492934426338198728e+00 -3.121664845468389071e+00
4.397135085708974600e+00 1.472786822493134196e+00 3.004797610026790355e+00
4.408642752565669731e+00 1.462349002626277095e+00 2.942876147644049034e+00
4.398865545128312959e+00 1.464279189634305478e+00 2.943184887328774035e+00
4.419720606475279645e+00 1.459933731432518256e+00 2.942017675198794091e+00
4.434652219057938716e+00 1.456880223732688329e+00 2.941260614142242158e+00
4.433924028170642018e+00 1.457016068147422683e+00 2.940432957062404817e+00
4.432471474536332501e+00 1.447091651928732015e+00 2.849492446719821714e+00
4.424985550306113957e+00 1.433172804500407072e+00 2.725047074517022772e+00
4.421117810696562955e+00 1.427944795213577533e+00 2.674738895768066005e+00
4.409316208098612577e+00 1.433415973909778485e+00 2.676955680792111547e+00
4.412416321201864555e+00 1.450110918530022719e+00 2.808166459171778317e+00
4.366296171842306784e+00 1.481224795080747558e+00 2.950230213426994208e+00
4.363576212398259102e+00 1.498223615292175959e+00 3.076524283888029565e+00
4.355197828464177690e+00 1.485029645280287580e+00 2.966309164698298861e+00
4.347129955672485835e+00 1.478680052055586280e+00 2.905197027661974296e+00
4.339893101415641219e+00 1.477520947186828248e+00 2.881993895996028510e+00
4.336180563696886203e+00 1.485851762405929977e+00 2.939161056146192941e+00
4.331491505032521339e+00 1.485861263850072778e+00 2.930272391862574821e+00
4.327986034312996999e+00 1.488646351831628856e+00 2.947832167412517634e+00
4.325578999173392170e+00 1.496767501732601868e+00 3.007180618550258533e+00
4.319127217870648572e+00 1.508463252765403606e+00 3.092323017379352112e+00
4.314018784286384189e+00 1.518325026574322889e+00 -3.116805693513228004e+00
4.306039997804370856e+00 1.518129358280803753e+00 -3.116897999940359654e+00
4.286997336839044159e+00 1.517657203839772206e+00 -3.116939527838408885e+00
4.288835546253461750e+00 1.518168131244031827e+00 -3.113186778952739431e+00
4.251500522013898831e+00 1.517291758158436865e+00 -3.114430536272876360e+00
4.251486246580163275e+00 1.517258246440580605e+00 -3.114073578635689454e+00
4.255516656020938093e+00 1.517361306697234680e+00 -3.113690426086147323e+00
4.247829966816458303e+00 1.515385180221885841e+00 -3.129200409634835367e+00
4.239830273136713679e+00 1.512023493243178418e+00 3.126994297136790557e+00
4.232462309031073566e+00 1.512155401402203392e+00 3.128889347747563221e+00
4.223271787091851692e+00 1.504954836869676349e+00 3.063117039403246977e+00
4.219899792768067925e+00 1.509310553600637039e+00 3.100103746982499242e+00
4.217315421977969159e+00 1.514737857342818961e+00 -3.133382966740574371e+00
4.212727386977912936e+00 1.506883942082293260e+00 3.076965437750383892e+00
4.203262148160442635e+00 1.510906952385517199e+00 3.137551638421770761e+00
4.197346832573914277e+00 1.517699031741878590e+00 -3.051893190606148387e+00
4.164082324823221271e+00 1.503281898574568176e+00 3.128076495053690120e+00
4.154913807224555278e+00 1.502977590765157911e+00 3.125015517693216616e+00
4.133822338266367247e+00 1.503313597048949068e+00 3.125154610575548553e+00
4.128455404709825416e+00 1.501210945162657628e+00 3.107258966731754946e+00
4.120342061663620825e+00 1.501488208895563670e+00 3.107308906792088710e+00
4.119928572403012801e+00 1.501501375016736084e+00 3.107277823030915709e+00
4.130613010232321969e+00 1.501107526744950071e+00 3.106983252318483046e+00
4.126563641006606886e+00 1.504976649894477214e+00 -3.140257529204128151e+00
4.127463722490364972e+00 1.505008662863835944e+00 -3.140513168425062229e+00
4.122141959644682885e+00 1.505025341045398202e+00 -3.139330106514253149e+00
4.114561601805032609e+00 1.505006097870545734e+00 -3.139025344266644257e+00
4.111787860040823972e+00 1.497383992713738454e+00 3.084014686325959431e+00
4.109690194065678703e+00 1.496214490176351886e+00 3.073127743105910525e+00
4.109228262485290273e+00 1.496232838871107251e+00 3.073243114105174811e+00
4.098268062805570544e+00 1.486276615625626407e+00 2.986710415081644587e+00
4.094002386178456021e+00 1.482217909168905834e+00 2.949588703112747901e+00
4.088335912792148363e+00 1.484432557201343039e+00 2.959831189282366992e+00
4.084396026737555196e+00 1.485208672507396965e+00 2.961826694220044853e+00
4.104424867805927413e+00 1.481600654556009644e+00 2.963385551453050049e+00
4.125159664524839620e+00 1.477875331845718287e+00 2.964827682726740132e+00
4.125076861796099337e+00 1.480248323868938787e+00 2.984125484446276122e+00
4.123454387954614830e+00 1.499660085207396909e+00 3.131614784222087611e+00
4.088307183719079418e+00 1.524367488280189864e+00 -2.939548333349453202e+00
4.051356517727612960e+00 1.513761797977123846e+00 -2.972491877485934797e+00
4.005905866088332878e+00 1.505978248478782922e+00 -2.973277084941829074e+00
3.978779125563029151e+00 1.504628381682303617e+00 -3.010170473034192273e+00
3.966415761258882622e+00 1.482253470166130294e+00 3.106051541831316154e+00
3.955394916409886719e+00 1.462338624085147698e+00 2.944633591668483152e+00
3.947828959868052046e+00 1.443897347164088574e+00 2.793214907919000289e+00
3.928684886031177825e+00 1.450593419500726844e+00 2.791854776472381339e+00
3.892682605252926642e+00 1.463688172666596676e+00 2.793412964693923417e+00
3.888912774978062981e+00 1.478286272873441831e+00 2.890310697441074161e+00
3.882884459247351039e+00 1.485334422776940944e+00 2.932878463573105776e+00
3.879393241985159335e+00 1.502101491900168062e+00 3.056006747358475550e+00
3.877745048669846817e+00 1.507491156621254325e+00 3.096250560508513772e+00
3.850922038161877836e+00 1.508782825365846847e+00 3.096706343958119501e+00
3.845297299431266858e+00 1.509023351590934814e+00 3.096659578088730491e+00
3.837927234867402948e+00 1.518145100784889179e+00 -3.117990612127927719e+00
3.821432825741168049e+00 1.517949403552047549e+00 -3.119585532376947246e+00
3.830405346099285069e+00 1.518277319930683378e+00 -3.117656030818521273e+00
3.830456043203678274e+00 1.518248125872948107e+00 -3.117352951469815281e+00
3.807177521178729762e+00 1.515977346051943897e+00 3.131172328358116541e+00
3.804299459458814869e+00 1.516036926836686671e+00 3.131016621858175863e+00
3.808450154839392088e+00 1.516069031720392202e+00 3.132773496520289580e+00
3.809440069641732762e+00 1.520604827168631878e+00 -3.114300535433227157e+00
3.807303892940035350e+00 1.520693002683523254e+00 -3.112001033431623043e+00
3.805109384557302299e+00 1.520638334862390639e+00 -3.111425506840312494e+00
3.793569160955647224e+00 1.532548899616294813e+00 -3.003206980003491289e+00
3.791585652039199061e+00 1.520395661050617075e+00 -3.097526636833673130e+00
3.784239886235780226e+00 1.506993559922779058e+00 3.082222734858448110e+00
3.781484206355751887e+00 1.498159715654086011e+00 3.012382831209762912e+00
3.773592618508228025e+00 1.498509146233488298e+00 3.006495584326046355e+00
3.771335134442050485e+00 1.491310396849946596e+00 3.063141411029864702e+00
3.758801576193599558e+00 1.485644376204742878e+00 3.111594195615617231e+00
3.753849752804290230e+00 1.485641244171160835e+00 3.111767534308533367e+00
3.749667131248981100e+00 1.478428027894592711e+00 -3.115029016449677002e+00
3.756343319271864267e+00 1.475585642391874286e+00 3.130159881775741226e+00
3.749288352414346992e+00 1.475756463726300982e+00 3.129544395716882033e+00
3.748670775340654071e+00 1.464214680317966755e+00 -3.052083646313298093e+00
3.749716438139598207e+00 1.460732178344994026e+00 -3.076935304220087541e+00
3.734984150018200388e+00 1.445801622442174583e+00 3.091158648669467546e+00
3.729883037967692605e+00 1.432970826787232976e+00 2.969013995462218780e+00
3.726545877023976328e+00 1.433260086656354071e+00 2.963592911857666490e+00
3.715878632146029314e+00 1.438806845499112308e+00 2.994005325362793624e+00
3.714409004473972598e+00 1.449496969555650328e+00 3.075355747896273861e+00
3.701521547816410074e+00 1.463096575328917126e+00 -3.103874815518984587e+00
3.689737998018026932e+00 1.462454160425267879e+00 -3.107794150650726284e+00
3.668446870512593883e+00 1.461730027544441146e+00 -3.109403187473172903e+00
3.640876269207237392e+00 1.460850416156888487e+00 -3.111086684962601989e+00
3.637891914855717168e+00 1.460772582185273727e+00 -3.110160644524565754e+00
3.632614379677192584e+00 1.448953039678581023e+00 3.071195266732149598e+00
3.626005052436812814e+00 1.444185132472965538e+00 3.029200234675067716e+00
3.617598289234769560e+00 1.431969198867029780e+00 2.925415311538175800e+00
3.626972606104677421e+00 1.429292445515544019e+00 2.921361800954979770e+00
3.624575291028826918e+00 1.430032650005522266e+00 2.923428501210195929e+00
3.615895183262699764e+00 1.427906757807304583e+00 2.954393457292157521e+00
3.580712572925334403e+00 1.428343775039491836e+00 2.994625305352226707e+00
3.550813638582429821e+00 1.435223422840612439e+00 3.014229219305927021e+00
3.548202472990638512e+00 1.440774592661830500e+00 3.055055526856794934e+00
3.542968838883020499e+00 1.452043445434952895e+00 3.140107156608943573e+00
3.530082439803298833e+00 1.467545274288157620e+00 -3.018481488258255130e+00
3.524852453460721957e+00 1.467611534624387426e+00 -3.012477107931349707e+00
3.505788961780277102e+00 1.465106913268190203e+00 -3.012945781040529347e+00
3.481942667813632486e+00 1.461128209363766750e+00 -3.020175044630709404e+00
3.464864415599258507e+00 1.468236974282308704e+00 -2.945519937259276411e+00
3.461937453497231143e+00 1.467908012937662932e+00 -2.943655226977113237e+00
3.445428580230801785e+00 1.459481658050628905e+00 -2.982777275548990303e+00
3.442350339589846708e+00 1.443526888689478982e+00 -3.101356145440932188e+00
3.454836823927495359e+00 1.443738314785241617e+00 -3.103383257620984104e+00
3.460790463918375526e+00 1.443936859282895169e+00 -3.103626740361479897e+00
3.456936416839647475e+00 1.442916049908584242e+00 -3.111087776971235286e+00
3.387238528360517531e+00 1.438360899758142963e+00 -3.141187445670540423e+00
3.376540356397879528e+00 1.438412300289875434e+00 -3.140729656264051872e+00
3.369184500541276162e+00 1.438491715588495312e+00 -3.139658087684031429e+00
3.386627468252335849e+00 1.440204699844939151e+00 -3.128258851743619839e+00
3.351441716178493735e+00 1.440545000928991959e+00 -3.133822059174986574e+00
3.354526132894092516e+00 1.440546039065944584e+00 -3.133281266676693821e+00
3.353557741255620339e+00 1.440544506717073459e+00 -3.133379786412019641e+00
3.337577836279975507e+00 1.438718549969159710e+00 3.133812982535257863e+00
3.335603702577135898e+00 1.443696217262627313e+00 3.092195604601700065e+00
3.347041759960191154e+00 1.443204271037253461e+00 3.093023173889162702e+00
3.347332125820464022e+00 1.443191751175443072e+00 3.093427130268550762e+00
3.336772993296257539e+00 1.450565651822983471e+00 3.034783086080468983e+00
3.333375745487003883e+00 1.451418221095300831e+00 3.027917851907358404e+00
3.330372109528102698e+00 1.459206028543416966e+00 3.086827551296115857e+00
3.322789489937055585e+00 1.471402802639747431e+00 -3.102231502745134151e+00
3.319364684573851143e+00 1.475261160755794387e+00 -3.070104856974899210e+00
3.316493380153859860e+00 1.466842365990091546e+00 -3.136156460132578427e+00
3.314436765822334596e+00 1.460088481204747435e+00 3.094102253750293574e+00
3.304754857707361104e+00 1.457264742346344510e+00 3.066555215080485119e+00
3.302986501329766345e+00 1.457943259921745893e+00 3.072672820455687681e+00
3.295623942782452076e+00 1.466660716678134246e+00 3.138860175771961636e+00
3.293241301182053160e+00 1.460938654803918268e+00 3.092458095140764307e+00
3.291406612258514386e+00 1.459441723714347328e+00 3.079347687403676925e+00
3.289793335849128031e+00 1.459499796658145776e+00 3.079371748214476234e+00
3.287786326364662948e+00 1.460069208785410355e+00 3.084291161020682903e+00
3.287709390177044444e+00 1.460073986359538445e+00 3.083506973278534513e+00
3.279486828406497079e+00 1.454347986188123665e+00 3.032333415677326283e+00
3.276468806307723192e+00 1.446249461202658404e+00 2.966892620144308879e+00
3.265919663062931466e+00 1.453000179950433512e+00 3.007619257781568578e+00
3.255480427931539023e+00 1.450766124735646478e+00 3.066097330411979627e+00
3.235846527617720181e+00 1.445068289227884772e+00 3.006490804762934399e+00
3.225451485176284994e+00 1.446107901152116293e+00 3.002764888137206434e+00
3.207205292747488112e+00 1.448668059715393586e+00 3.003804390958639381e+00
3.177968792650762708e+00 1.452728489703957404e+00 3.004616851195733407e+00
3.169701243811953173e+00 1.443045606379969037e+00 2.919708192385367607e+00
3.145664101734816143e+00 1.448396203602422716e+00 2.919998931115109997e+00
3.123834321941361125e+00 1.457696847879190738e+00 2.953750026052685218e+00
3.118278784250633873e+00 1.469976009802359762e+00 3.040937944850823360e+00
3.115666805889457880e+00 1.484168297264619518e+00 -3.134875001584904730e+00
3.107849649158672900e+00 1.491351672485766722e+00 -3.078028412891977705e+00
3.120535094955389610e+00 1.492242089980804431e+00 -3.077285682584332438e+00
3.128682310627820318e+00 1.492742378370625733e+00 -3.076761493470224096e+00
3.135629539153474088e+00 1.493176757529853127e+00 -3.075831308548961474e+00
3.121574036266145491e+00 1.494482958757844315e+00 -3.056634800994617152e+00
3.102664592570431701e+00 1.497914763224504009e+00 -3.014048247163903405e+00
3.096531757051782741e+00 1.508019544224696196e+00 -2.928564231726712652e+00
3.095350059390686415e+00 1.507978745195518000e+00 -2.927003740596545889e+00
3.095267246054730137e+00 1.491898038362544865e+00 -3.050237870268446727e+00
3.088110576222058423e+00 1.488160398669021500e+00 -3.075413772705635207e+00
3.084842480628911865e+00 1.475526626901574323e+00 3.110858975352752687e+00
3.082344241484602065e+00 1.475524412622259529e+00 3.112191922643933850e+00
3.082003863069406435e+00 1.473998751836372856e+00 3.099144624319934760e+00
3.078706545938646233e+00 1.480951377356025667e+00 -3.099285897602073625e+00
3.073447399680924619e+00 1.477726081707741335e+00 -3.123907077197703774e+00
3.071687607053048996e+00 1.478023249281241513e+00 -3.118176588850202879e+00
3.066120511301069218e+00 1.477894821908143586e+00 -3.117686156528986618e+00
3.045676125895277142e+00 1.477451685005723991e+00 -3.116089216673135542e+00
3.041136755306037998e+00 1.477331241144046903e+00 -3.116189063876703358e+00
3.015318593403916836e+00 1.476240119277564933e+00 -3.112442145875736976e+00
3.000235446072580192e+00 1.475814349835126382e+00 -3.111616576842869630e+00
2.995381675739978711e+00 1.470455185467676174e+00 3.130070592823107400e+00
2.988182211385712606e+00 1.470497541869500102e+00 3.130885771557244901e+00
2.959198103520838341e+00 1.470977824852647942e+00 3.133500086998315393e+00
2.947701027471171020e+00 1.485408737795198331e+00 -3.037185957053890828e+00
2.937537161474944369e+00 1.501818036998640471e+00 -2.899885965413414368e+00
2.921905541217181046e+00 1.498379836047771585e+00 -2.897102714109339949e+00
2.898455652649425840e+00 1.492060835263636864e+00 -2.901160218408394442e+00
2.896720109700451573e+00 1.480057037228875938e+00 -2.988127239857599093e+00
2.895197043245314017e+00 1.463560368746076312e+00 -3.112505271020290287e+00
2.893416619374694854e+00 1.458353760750152439e+00 3.130627265445953711e+00
2.871329387786020426e+00 1.458515535864000290e+00 3.130274959906770071e+00
2.855326589385960734e+00 1.459078057483267798e+00 3.133668747354962925e+00
2.848488036958499059e+00 1.477354920596714249e+00 -3.007180611434405737e+00
2.842920375815086942e+00 1.493406898127501270e+00 -2.878603896356875413e+00
2.832549662915289534e+00 1.490721182327187755e+00 -2.878178205861278371e+00
2.819887577879724105e+00 1.487269507827944537e+00 -2.878466357212787319e+00
2.803383837651516775e+00 1.482761743762780471e+00 -2.878957006982649336e+00
2.789553330385983632e+00 1.472857602137118915e+00 -2.925406170074326351e+00
2.778388762490635600e+00 1.464178781164359400e+00 -2.973444318671269126e+00
2.773864181220880187e+00 1.459034658537040618e+00 -3.006677766734241253e+00
2.770336196390648986e+00 1.449687938776530238e+00 -3.075091769817603016e+00
2.767710022290749805e+00 1.448167604397386787e+00 -3.085615310455653848e+00
2.764550111585359016e+00 1.460939237149385228e+00 -2.984781064515270366e+00
2.759083702828789786e+00 1.473676231307480711e+00 -2.881348669934299167e+00
2.766913626099196666e+00 1.474662868110396374e+00 -2.890063357381857045e+00
2.767878497284975925e+00 1.457036022549140553e+00 -3.024600165436809540e+00
2.761345442312533649e+00 1.443865312098587594e+00 -3.122934244572094009e+00
2.757146918461105489e+00 1.435805681271770551e+00 3.097296115886579049e+00
2.752495642843070911e+00 1.447214342412768806e+00 -3.097127470341424438e+00
2.747915072879962839e+00 1.463402240089946238e+00 -2.970498286858782588e+00
2.740579680366433735e+00 1.473866215964606097e+00 -2.881409268081663644e+00
2.737992693612857131e+00 1.475752658244121829e+00 -2.900393523136657326e+00
2.739800776023213480e+00 1.476244967532152730e+00 -2.900365529172711732e+00
2.738352945195498656e+00 1.476442763358293053e+00 -2.904899634384740637e+00
2.734789047882955071e+00 1.482713163321778493e+00 -2.957616508353085205e+00
2.733465026987060842e+00 1.496609909204743571e+00 -3.065357889982263995e+00
2.729836164885343752e+00 1.496728833400772229e+00 -3.069274662779221341e+00
2.746684049354761736e+00 1.497998589375006739e+00 -3.068413679682020945e+00
2.758575350326767595e+00 1.498832236984184441e+00 -3.068052829231149303e+00
2.757300269994906294e+00 1.502259956481217129e+00 -3.095320722042317563e+00
2.768160822829349943e+00 1.502654441471849234e+00 -3.093845035197349436e+00
2.774880532638688280e+00 1.492449974060416906e+00 -3.012567960310088555e+00
2.772499687860030093e+00 1.478787508119591809e+00 -2.912921367553768626e+00
2.777925289745676096e+00 1.479928862239410892e+00 -2.912689136229373421e+00
2.784114347569165204e+00 1.481417258603874298e+00 -2.913970541702183059e+00
2.785860008964309742e+00 1.491876235214043112e+00 -2.991286630475304520e+00
2.784398639465825109e+00 1.497789618884905360e+00 -3.038465698972590001e+00
2.784420398477061909e+00 1.498076161929799088e+00 -3.039583381201480083e+00
2.794934910293022323e+00 1.498790392477688194e+00 -3.025219440336873067e+00
2.792733470513374172e+00 1.497366308331573581e+00 -3.015508545461849099e+00
2.785900022561564437e+00 1.500656466692738444e+00 -3.123519498295848962e+00
2.786538479968132087e+00 1.507909881115098605e+00 3.096792848239145801e+00
2.789851442835821427e+00 1.512842816980401794e+00 3.135855161785068734e+00
2.785806542734393432e+00 1.527187536021883174e+00 -3.034666655576403915e+00
2.758574267900778310e+00 1.531205173687006482e+00 -2.929893860496746605e+00
2.752816105236701727e+00 1.529604231617149646e+00 -2.934257207559850755e+00
2.746353279377628187e+00 1.529680858798865728e+00 -2.920381045121816399e+00
2.723626549386623186e+00 1.514456378642008660e+00 -3.005494252100173291e+00
2.712170619085031653e+00 1.501279225163062891e+00 -3.098675813988612138e+00
2.707429055514296579e+00 1.512123900917259123e+00 -3.009844396714835835e+00
2.704668044509761948e+00 1.516211130873065915e+00 -2.974744247003877184e+00
2.701494670576260582e+00 1.516104823478493513e+00 -2.970418395635772146e+00
2.691498786057448633e+00 1.529426301238048014e+00 -2.851228151471690175e+00
2.676305124482500020e+00 1.534514497495601537e+00 -2.776157873368690243e+00
2.663317678324800930e+00 1.525979431403307496e+00 -2.804766179155727457e+00
2.657979499304273574e+00 1.508844870464782106e+00 -2.918279909177845521e+00
2.656166924799052698e+00 1.504567928458203419e+00 -2.948263929225207303e+00
2.648748492013408562e+00 1.504033986824537594e+00 -2.939678805671479100e+00
2.647593809782695651e+00 1.498305746695611562e+00 -2.982398054733825798e+00
2.645273432779278178e+00 1.488633165639562161e+00 -3.054305623376295742e+00
2.640555678437583431e+00 1.496339271718752473e+00 -2.990098837777978691e+00
2.634631562699700780e+00 1.506446956051201269e+00 -2.904815597829339069e+00
2.629415848471044370e+00 1.515295814099582916e+00 -2.828247569727027955e+00
2.619119858474392881e+00 1.506115051899018953e+00 -2.873233872403319289e+00
2.619008239641150038e+00 1.486507509219418877e+00 -3.020665579152912450e+00
2.615072555000086396e+00 1.475394719274631949e+00 -3.103389060300630220e+00
2.605656052057422567e+00 1.474765118198807512e+00 -3.104595166700181874e+00
2.581829514486023047e+00 1.481371274305999242e+00 -3.045552371098687150e+00
2.575913916140190274e+00 1.496651070185838428e+00 -2.922624138635262714e+00
2.572765429689455541e+00 1.500357057577804243e+00 -2.888874548792602415e+00
2.552555631416061122e+00 1.494991536902247509e+00 -2.892833711604654301e+00
2.550098352054151363e+00 1.489212832913840323e+00 -2.932096811328543495e+00
2.548582748179963442e+00 1.479924994188327458e+00 -3.000455664414351187e+00
2.531047252634888611e+00 1.474515427495609821e+00 -3.024314613441700494e+00
2.512537365603005668e+00 1.482108659644175930e+00 -2.946771592635020642e+00
2.507223295397836615e+00 1.492980946925842600e+00 -2.856512021302608506e+00
2.499129879126601228e+00 1.502784929697153382e+00 -2.765761626580276022e+00
2.494276636154254767e+00 1.501059250270661449e+00 -2.765354450162252675e+00
2.461964793088235126e+00 1.488441553089456582e+00 -2.767743936723605191e+00
2.458241346617385137e+00 1.482664301389092776e+00 -2.798500870092611059e+00
2.459328435878968655e+00 1.468293529854348245e+00 -2.905837617330313538e+00
2.474047955101528640e+00 1.465721923449056385e+00 -2.946737889825781220e+00
2.478452431450095528e+00 1.466557057553967480e+00 -2.946992938304205722e+00
2.476426424286891415e+00 1.467899847932823354e+00 -2.932594925486490478e+00
2.483055486936564193e+00 1.469024550461383916e+00 -2.935982521031888837e+00
2.489305215885365907e+00 1.465996066006965970e+00 -2.968758387129411869e+00
2.487489654211804790e+00 1.465480496425679124e+00 -2.970803731019352245e+00
2.483564968751514446e+00 1.471919239902718557e+00 -2.914781738275941336e+00
2.476794344917683244e+00 1.474244227985416211e+00 -2.884445955189510968e+00
2.476173447534011363e+00 1.474200540728453745e+00 -2.882917581455849643e+00
2.473434618698272747e+00 1.473476510600646661e+00 -2.882687054206599431e+00
2.472748349316385763e+00 1.472859434900909426e+00 -2.886304489570248322e+00
2.472339057930436734e+00 1.466871943788637500e+00 -2.931020127461951397e+00
2.471934507352695487e+00 1.464386921838792821e+00 -2.949661942311269769e+00
2.468013212785674870e+00 1.466736468870046384e+00 -2.924537482402916666e+00
2.465274306352870592e+00 1.466215443846379918e+00 -2.923791514142338954e+00
2.464215915028608261e+00 1.462919103685448752e+00 -2.947653614969847347e+00
2.461814807782262804e+00 1.460808056527075793e+00 -2.960972396985399602e+00
2.449880908686528080e+00 1.453754544316523623e+00 -3.000314666395970775e+00
2.446943451957981353e+00 1.457928221176253647e+00 -2.963903633319347808e+00
2.445581517343785816e+00 1.460216109095363146e+00 -2.944041988830903733e+00
2.444594126079293606e+00 1.460733985296577497e+00 -2.937936909181180223e+00
2.422478795832730292e+00 1.467271395296344094e+00 -2.847709572904444819e+00
2.421798245254817683e+00 1.467324433687170471e+00 -2.845790444077834103e+00
2.403872841552613604e+00 1.461831556990361713e+00 -2.846543219870175889e+00
2.403042168955873858e+00 1.463229881691605172e+00 -2.834090941454203705e+00
2.392296462097274201e+00 1.459807005051929396e+00 -2.834933619690781725e+00
2.372986998441265261e+00 1.453661801697981870e+00 -2.835756368459435350e+00
2.347393570236588456e+00 1.446179384497221054e+00 -2.841543604724265926e+00
2.340615931994079801e+00 1.445790177141408783e+00 -2.827823076604283337e+00
2.322660036122667915e+00 1.437982348219622564e+00 -2.846700378136145737e+00
2.319246121239055380e+00 1.434331785800923020e+00 -2.866812876203073568e+00
2.317218868079439442e+00 1.423669654522573991e+00 -2.943047288944909745e+00
2.310227127494968169e+00 1.419446640536870419e+00 -2.965586525680543151e+00
2.304146404281682603e+00 1.421678045893713715e+00 -2.938943354148146447e+00
2.301214263423695616e+00 1.422781270036446388e+00 -2.925301619750948046e+00
2.298515629156392404e+00 1.426386427382233313e+00 -2.893117442040097131e+00
2.288806443577058314e+00 1.431037164928540273e+00 -2.838334098806285510e+00
2.280609508908102878e+00 1.437489382066865939e+00 -2.770895934917321668e+00
2.276301766412081928e+00 1.437178595096255229e+00 -2.761091648701881063e+00
2.261415610528213271e+00 1.431202293386018676e+00 -2.761721961689382887e+00
2.257475868669502894e+00 1.429639775280594272e+00 -2.761603857202344248e+00
2.255402835286167917e+00 1.429814556479701571e+00 -2.754513492884771875e+00
2.239257288356093945e+00 1.421712934392944216e+00 -2.766347709774046759e+00
2.239280885203351001e+00 1.411975586746401889e+00 -2.836462910179182284e+00
2.240364759776490633e+00 1.396851847446934247e+00 -2.950334556535055608e+00
2.242989286225175682e+00 1.391373440095288405e+00 -2.994159560311121737e+00
2.213364669911825899e+00 1.386695652947546931e+00 -2.992080382776427960e+00
2.199264552293243025e+00 1.393149397256457256e+00 -2.926227309901155760e+00
2.187207473724374740e+00 1.411236594004403155e+00 -2.767469168942556124e+00
2.193071723081166713e+00 1.418427158928817988e+00 -2.734021928977271809e+00
2.188302794364954895e+00 1.422626511419372575e+00 -2.777850085579549599e+00
2.172758741847683250e+00 1.423655923225705777e+00 -2.825337559850088720e+00
2.170804076318952003e+00 1.423106376400818940e+00 -2.826749144161885052e+00
2.167577040575613623e+00 1.421589714238033597e+00 -2.831199187748925539e+00
2.167241237117044861e+00 1.416704293201679565e+00 -2.874945703473394065e+00
2.162356047076507082e+00 1.418367836732641329e+00 -2.852537043960011509e+00
2.161386978180706020e+00 1.418169437971445568e+00 -2.851888486193309813e+00
2.157954901846908857e+00 1.425124869777365300e+00 -2.780513401127411299e+00
2.161050324802043843e+00 1.424902194754806173e+00 -2.766370676364520609e+00
2.158070950531094212e+00 1.430372988388752375e+00 -2.814024485620854943e+00
2.153808917125701772e+00 1.440871535551300653e+00 -2.904290241321151100e+00
2.152881388810592878e+00 1.439302758448864683e+00 -2.925724712923745585e+00
2.127300430154473787e+00 1.425896928337309078e+00 -2.837215764248763872e+00
2.127481877531108179e+00 1.408889394260848027e+00 -2.714180966801285511e+00
2.128374988232373255e+00 1.403099898129754664e+00 -2.670415262653871746e+00
2.124836243202857577e+00 1.398716759725095127e+00 -2.688332456350086552e+00
2.119523399483224768e+00 1.383532405118518271e+00 -2.779043193825363467e+00
2.139026647995420305e+00 1.385661665298564715e+00 -2.812542822099644457e+00
2.136250358764529622e+00 1.381396277340089629e+00 -2.789033846632976932e+00
2.129958790042585370e+00 1.376956248531425286e+00 -2.774309782303429284e+00
2.138999234164729479e+00 1.380432143571317383e+00 -2.774508122857391790e+00
2.143207163797565595e+00 1.382059482096038572e+00 -2.775025049046317083e+00
2.142045595225136712e+00 1.381954344336230323e+00 -2.777972208658634035e+00
2.141212025246265416e+00 1.389949265475708406e+00 -2.838210816676069559e+00
2.124627640786695082e+00 1.388241027274621731e+00 -2.862625067314053418e+00
2.126792410137500422e+00 1.386455117501868450e+00 -2.843620373307571558e+00
2.130267208016079383e+00 1.379469900140442462e+00 -2.783854544294854794e+00
2.122608504650107086e+00 1.367652602937335038e+00 -2.721776821721381356e+00
2.122347825737274096e+00 1.367408337284972353e+00 -2.721796416093185567e+00
2.132511736038949834e+00 1.377732871034821782e+00 -2.764834220444877477e+00
2.126192792063281711e+00 1.386356718601970739e+00 -2.843872633228640812e+00
2.125965841174326965e+00 1.386501051452835309e+00 -2.845287868975236112e+00
2.131730833334283925e+00 1.381157944200534837e+00 -2.791887394430031311e+00
2.131478352030353740e+00 1.380647523467448456e+00 -2.795588847648096120e+00
2.118776597942876094e+00 1.376048357967990521e+00 -2.794368472836686657e+00
2.117023810748027479e+00 1.375420995867648211e+00 -2.792635201356199026e+00
2.116102822647990322e+00 1.375084228728595592e+00 -2.792794765913806376e+00
2.109059588783082084e+00 1.372427811506353734e+00 -2.789275157223628288e+00
2.105715290984736310e+00 1.373982522740573531e+00 -2.766968100350799098e+00
2.075448957926248283e+00 1.362114486470204611e+00 -2.766766877556848137e+00
2.072062356272897699e+00 1.360788387158938573e+00 -2.766285505708737436e+00
2.070949620200968511e+00 1.360350192669045999e+00 -2.766359234708912318e+00
2.044335425387663108e+00 1.349862499206033295e+00 -2.768435253549462960e+00
2.040844684483642091e+00 1.348493398044315672e+00 -2.769407948624551530e+00
2.038297534343193718e+00 1.350700639181733553e+00 -2.744859484782645520e+00
2.033788624960374936e+00 1.355141399441043726e+00 -2.698810072684501016e+00
2.034271531450166037e+00 1.350343244402552045e+00 -2.736325159344077385e+00
2.034420857618456591e+00 1.341149206161360796e+00 -2.803089478572880822e+00
2.033814110924955454e+00 1.335361018826951129e+00 -2.844529754346779793e+00
2.027528805840423498e+00 1.333379170930192759e+00 -2.844221407097776932e+00
2.021681498089038520e+00 1.342320764511558906e+00 -2.763842048432809673e+00
2.012672250322824485e+00 1.352128542759758023e+00 -2.666275562878240191e+00
2.011062038644922279e+00 1.351535374125785172e+00 -2.665007786011356128e+00
2.009888964886794582e+00 1.350806285972298904e+00 -2.666977144964326474e+00
2.005486638494475393e+00 1.347902441605997703e+00 -2.672342296292780972e+00
2.007578812515312006e+00 1.336173695189019295e+00 -2.761230114895312671e+00
2.009376742321797860e+00 1.317493272032197460e+00 -2.902124510496626009e+00
2.006686726854516767e+00 1.316574119294893208e+00 -2.902728433831307076e+00
1.988508790132904824e+00 1.327327781807083440e+00 -2.785653251375945771e+00
1.977872794436515314e+00 1.342035240360155646e+00 -2.649087856150997400e+00
1.974338480712853450e+00 1.345351211746033115e+00 -2.613052215263149236e+00
1.960996621138803908e+00 1.338001234065383072e+00 -2.615538031353173309e+00
1.956226626697703752e+00 1.326457783225602594e+00 -2.674972231819371160e+00
1.948560011648103885e+00 1.317934984094528916e+00 -2.708927602810167201e+00
1.947185045220621413e+00 1.317351183171089790e+00 -2.707683495594673584e+00
1.948948470054939763e+00 1.306844633043265036e+00 -2.788493710183296503e+00
1.947400406216907243e+00 1.300359207144251572e+00 -2.832010809011859198e+00
1.936551327686967028e+00 1.296872909609154911e+00 -2.830902734444626034e+00
1.920613412584267765e+00 1.302539025823181706e+00 -2.749881402052189561e+00
1.913923452664202385e+00 1.309877253684084586e+00 -2.677133194620226142e+00
1.910552823239927811e+00 1.310433439717886284e+00 -2.660991533624687655e+00
1.909367002065765373e+00 1.309829931580462459e+00 -2.661330420355862980e+00
1.895435859714835303e+00 1.301930979576839897e+00 -2.667740688631284662e+00
1.893144297243827046e+00 1.292073390204768302e+00 -2.728597016445266199e+00
1.893784561293622382e+00 1.284289923790994381e+00 -2.785515372645941845e+00
1.880239963065920783e+00 1.283616620278080322e+00 -2.753123671060521360e+00
1.867914397948639227e+00 1.299704259816755636e+00 -2.601070826707075234e+00
1.864237447013841642e+00 1.312423968417878228e+00 -2.506834947334163122e+00
1.856572284866559785e+00 1.306784547332476620e+00 -2.507001836077120238e+00
1.830923678077776007e+00 1.288009576013261270e+00 -2.507595167612063580e+00
1.815069094143252793e+00 1.271335336636692182e+00 -2.538756691059632420e+00
1.820835788862207538e+00 1.255043054811534997e+00 -2.668073998181806239e+00
1.839170213327948833e+00 1.259968695935857586e+00 -2.694656010755731579e+00
1.839235507047312312e+00 1.259966178165399464e+00 -2.695161684203597918e+00
1.830030776830220196e+00 1.266664798926586899e+00 -2.615302678922631685e+00
1.828529657642002038e+00 1.267214700254256643e+00 -2.605012660035198824e+00
1.836194899503263089e+00 1.270286970486296685e+00 -2.615707113579728293e+00
1.835954889334155515e+00 1.266962847069364129e+00 -2.637646388462822067e+00
1.836070421387404394e+00 1.259855454228256733e+00 -2.687094558254688348e+00
1.838244936892086345e+00 1.251541867698423127e+00 -2.752817372854511113e+00
1.833848472415374742e+00 1.251791145397310068e+00 -2.736378061499187275e+00
1.831786457743790564e+00 1.250550278084954892e+00 -2.740507490654070732e+00
1.822318603815060056e+00 1.256444660436086158e+00 -2.665811264106822787e+00
1.821233984354576618e+00 1.256159015982583504e+00 -2.663438397040477579e+00
1.815566076293291475e+00 1.261517424623436856e+00 -2.605344258400426938e+00
1.811018252924356586e+00 1.259393068576526442e+00 -2.601622171194343913e+00
1.807410366697073112e+00 1.262340093889291470e+00 -2.565877862902255835e+00
1.809965638614557060e+00 1.251076526072882222e+00 -2.654910608917579129e+00
1.807058351564241550e+00 1.248219650725492347e+00 -2.664917700808391743e+00
1.796935922607776570e+00 1.244792890585144640e+00 -2.650726550323402542e+00
1.781542029557610762e+00 1.252325204691856042e+00 -2.540259676269768896e+00
1.779482659688767177e+00 1.253772127497887023e+00 -2.521991146478995027e+00
1.762022124267570655e+00 1.241552849880815490e+00 -2.523511440964536057e+00
1.745368463093169620e+00 1.229710047979288845e+00 -2.523518160083245920e+00
1.723438959665016812e+00 1.214094129028812974e+00 -2.523762313147091429e+00
1.718504350048164708e+00 1.210670730827883235e+00 -2.523212813198438376e+00
1.698887619059567422e+00 1.196785609929807759e+00 -2.524432893659025900e+00
1.677736450548473979e+00 1.181738881057475821e+00 -2.525415100690489023e+00
1.673615209959412820e+00 1.171726190620166141e+00 -2.570936203604129666e+00
1.674960118219193106e+00 1.163185044805544077e+00 -2.632825691319886197e+00
1.669295084278109575e+00 1.156407642347090814e+00 -2.658520226707139500e+00
1.655397290863912074e+00 1.161885019766840443e+00 -2.568234782962202090e+00
1.643185675281028324e+00 1.163887231110106502e+00 -2.502195725215707878e+00
1.634496676416619998e+00 1.171390546426533286e+00 -2.415972515585314895e+00
1.629177976397614636e+00 1.174105300518585748e+00 -2.373228250568048203e+00
1.613286183666514884e+00 1.158840151110709815e+00 -2.372753326766279258e+00
1.596708932758756916e+00 1.135671428713676212e+00 -2.412622217109902767e+00
1.605420909519052142e+00 1.119519054060668539e+00 -2.550745737493872234e+00
1.611544707625005790e+00 1.114968964518106675e+00 -2.604064119665578492e+00
1.609014956051813883e+00 1.113412245694327396e+00 -2.603485997809680264e+00
1.589845047478880113e+00 1.101898248466866459e+00 -2.602942663053399830e+00
1.573639949917370995e+00 1.092181285540938296e+00 -2.602605356061054032e+00
1.559295003344418840e+00 1.083582641362368371e+00 -2.602374873636619235e+00
1.543691112449982583e+00 1.087445060455719537e+00 -2.514684317273682801e+00
1.536380814457756427e+00 1.097985382107238284e+00 -2.416612903891797615e+00
1.534093721219003559e+00 1.096045129062608314e+00 -2.417865072408643456e+00
1.533742213375077101e+00 1.089587131250649987e+00 -2.454916807788914301e+00
1.531103687809131753e+00 1.086889471733186063e+00 -2.451789063146535774e+00
1.532257858718708343e+00 1.081756499275094319e+00 -2.516180639079621528e+00
1.527305416590537313e+00 1.084802788639651627e+00 -2.555989713755554504e+00
1.530949781802477094e+00 1.069090399312112361e+00 -2.443704759786747172e+00
1.515275829653225159e+00 1.049682077304184391e+00 -2.412533590192800226e+00
1.525892952047063211e+00 1.056457304556933208e+00 -2.427013718149440447e+00
1.523056262655684723e+00 1.053814348738751461e+00 -2.425434755694490185e+00
1.515083184754075329e+00 1.046487865572299558e+00 -2.423368948645598930e+00
1.521256440502199547e+00 1.051855903392300062e+00 -2.423669534441216467e+00
1.518637640574952208e+00 1.049536092965799750e+00 -2.423769298610858769e+00
1.520683331940730021e+00 1.046245095438396833e+00 -2.393878804415601635e+00
1.513034586235393331e+00 1.039043679649789276e+00 -2.394161914624926002e+00
1.514718553052442296e+00 1.039912223092122501e+00 -2.399241572218316243e+00
1.508139283159051658e+00 1.035418247142187553e+00 -2.409647499214059518e+00
1.503726307874142964e+00 1.042152655699822850e+00 -2.472499716124428204e+00
1.500364902814046220e+00 1.040871506836136495e+00 -2.482153095445677859e+00
1.476789103374471335e+00 1.020029005508247710e+00 -2.451738624534405275e+00
1.452463686860796521e+00 9.964213499203040669e-01 -2.478041443537970956e+00
1.450785310551857110e+00 9.950612860208467580e-01 -2.478972476796681867e+00
1.441597728801208289e+00 1.000826837538721481e+00 -2.397992924722447405e+00
1.425554415857911650e+00 1.004017321428483100e+00 -2.292296404475291371e+00
1.423718689473203236e+00 1.002122218513061380e+00 -2.292828700177695911e+00
1.414663330684676090e+00 9.918471746839555570e-01 -2.294633644956596275e+00
1.407763990785908081e+00 9.820573945794418558e-01 -2.309565594135050581e+00
1.402836684338940820e+00 9.766939903010281032e-01 -2.307641399953579420e+00
1.399016159555122263e+00 9.731623231020779530e-01 -2.303052545991530753e+00
1.399575223054032147e+00 9.649857788405954429e-01 -2.350584547653165490e+00
1.396474141451304662e+00 9.439176927076902146e-01 -2.454690438173801947e+00
1.383969139583358210e+00 9.284632298343251655e-01 -2.488687194420275528e+00
1.375758901589672289e+00 9.221384990151839656e-01 -2.488047827444034965e+00
1.367161254751423360e+00 9.155811036819302418e-01 -2.487257138304435067e+00
1.342858815949836693e+00 8.996306994158905779e-01 -2.468174241434410554e+00
1.328287795436233987e+00 9.040581615307232699e-01 -2.369349294497295144e+00
1.316361919095222710e+00 9.096893944789852249e-01 -2.273483161460500668e+00
1.309290280535750917e+00 9.025683962788320081e-01 -2.266923077484728211e+00
1.303741486407177685e+00 8.959837865547773950e-01 -2.267935791077547947e+00
1.299664317763343346e+00 8.911563349046801585e-01 -2.268225410045582091e+00
1.275314390801215225e+00 8.590328642581558372e-01 -2.289629818349532719e+00
1.268822594809441151e+00 8.514728970278638842e-01 -2.290500360574407424e+00
1.272917302678728824e+00 8.561538706023235079e-01 -2.290662959870621851e+00
1.261863708088594160e+00 8.425961304029827570e-01 -2.285456809240961729e+00
1.263505432938107464e+00 8.316631655048501992e-01 -2.220149736768652904e+00
1.271857876248658981e+00 8.227905361730394329e-01 -2.128515068058337789e+00
1.266313931839818441e+00 8.133745325346846133e-01 -2.125756397637437178e+00
1.267897979034917411e+00 8.159357452970611435e-01 -2.126657036470501527e+00
1.270473686988113249e+00 8.102039798643551061e-01 -2.168687958898031454e+00
1.272093404804742534e+00 8.071493652171533029e-01 -2.193496033361974185e+00
1.251505046637271468e+00 7.786168127241039905e-01 -2.190021855938082407e+00
1.249062919857546472e+00 7.752128278498356950e-01 -2.188667576259132552e+00
1.245204286565508855e+00 7.678503339566512542e-01 -2.199425289252373794e+00
1.252241217165945830e+00 7.516380149538895994e-01 -2.320958244513032120e+00
1.248681910794541050e+00 7.506531616406457719e-01 -2.304163059093018440e+00
1.243519482085945871e+00 7.509467169754219240e-01 -2.271908865294494539e+00
1.231310598788948774e+00 7.231854251983004245e-01 -2.348432873237341845e+00
1.222584382823111326e+00 7.247708134247508038e-01 -2.289772109972871839e+00
1.206516802108625219e+00 7.236467488052208408e-01 -2.197777970043999218e+00
1.166606324799434047e+00 6.618513929131004669e-01 -2.239800128253356171e+00
1.152164266077285060e+00 6.508816333055739145e-01 -2.203777390568578465e+00
1.137068957870957853e+00 6.427808975279167836e-01 -2.141329891916604389e+00
1.107993226800017439e+00 5.974347837432879560e-01 -2.141335683885861041e+00
1.066101114462983501e+00 5.353735103103299808e-01 -2.109683823024888216e+00
1.016966560198186542e+00 4.798945715761406272e-01 -1.965045777900478630e+00
9.611418077807829530e-01 3.512772433438876574e-01 -1.920395565637785573e+00
9.198437331358220170e-01 2.420804469460519359e-01 -1.907418691392177124e+00
8.841861540152693433e-01 1.517391111363922129e-01 -1.842140617002034464e+00
8.518634021536735101e-01 1.668224610544137565e-02 -1.920117175398918796e+00
8.322574040811507867e-01 -3.866483720134059054e-02 -1.926934896873049308e+00
7.748483395224480264e-01 -1.950853560763853856e-01 -2.001730121189742029e+00
7.522291367794404771e-01 -2.462547257444191173e-01 -2.012225379858133323e+00
6.984033846033980142e-01 -3.691844205581456539e-01 -2.086663256702966596e+00
6.337769259391935472e-01 -4.872181131031549373e-01 -2.106168004902205126e+00
5.819733125216761671e-01 -5.748832276151223386e-01 -2.111239183605406300e+00
5.496542862726743195e-01 -6.566687594281754858e-01 -2.273718565280580695e+00
5.173173938107242797e-01 -7.205014613765864384e-01 -2.445475172858956991e+00
5.024555890001297653e-01 -7.497773565461554046e-01 -2.557865584492533095e+00
5.095619505875412791e-01 -7.561041078341850241e-01 -2.631677173348543342e+00
3.704045528111128971e-01 -8.322894615020065556e-01 -2.662617818716795703e+00
2.880585066497181046e-01 -8.826761475240769705e-01 -2.760089138193183800e+00
2.331406143521469743e-01 -9.201622457141871436e-01 -2.906091323523421810e+00
1.901127341518735747e-01 -9.448115563531342964e-01 -3.036576812155363125e+00
1.265066018556584015e-01 -9.634913580648351017e-01 3.119018614379225340e+00
1.257825729231620837e-01 -9.708762485529468522e-01 3.057022416582298785e+00
6.909036423650508248e-03 -9.648043541105973953e-01 2.959739460510177445e+00
-5.852936333646355932e-02 -9.605651326363668918e-01 2.897359025227728591e+00
-1.278645467306056827e-01 -9.422281410426520676e-01 2.803043481345043109e+00
-2.173185614601009508e-01 -9.108414631168044728e-01 2.801346286815720177e+00
-2.537782682196693673e-01 -8.991987533721771397e-01 2.788825340530316055e+00
-3.412667341360805517e-01 -8.743590626011203959e-01 2.697884922712022515e+00
-3.924910674987993620e-01 -8.531227107031553736e-01 2.593696104378901079e+00
-4.819546610920675822e-01 -8.141852488382353981e-01 2.432354411393250704e+00
-4.877054914564661892e-01 -8.317580667994227683e-01 2.312061106130592236e+00
-5.236052977596271640e-01 -8.018099453409007760e-01 2.258373445659329626e+00
-6.131078705280751384e-01 -7.095747536410133005e-01 2.077883985219619589e+00
-6.557475061684384654e-01 -6.334683105521187185e-01 1.936982943242578248e+00
-6.844307565984280028e-01 -5.586547117744881108e-01 1.937384192598710531e+00
-7.304766800014597106e-01 -4.612393406592243950e-01 1.863294721918167918e+00
-7.455414374261091215e-01 -4.635915053107857453e-01 1.749499048513026622e+00
-7.276299322072679043e-01 -4.475049765257466117e-01 1.601689440222432648e+00
-7.172718272389622118e-01 -3.640965639185688163e-01 1.425700088583559122e+00
-7.244131208106434627e-01 -3.199448777971292679e-01 1.302919863829541169e+00
-7.303272608121963438e-01 -2.923666919915458018e-01 1.192765978631543655e+00
-7.260083679050460814e-01 -2.904435040596763384e-01 1.163808251093977342e+00
-6.843556193189412884e-01 -1.775031827854377797e-01 1.000178764144734611e+00
-6.736284942204959769e-01 -1.371319351560179034e-01 8.847896402190166265e-01
-6.243703859542051315e-01 -9.106308321164575947e-02 8.073456298195341718e-01
-5.833667925465336745e-01 -5.459491106374041169e-02 7.355829543241197976e-01
-5.188600207046734081e-01 1.494344792297728521e-02 6.425050498302059543e-01
-4.719058542582747484e-01 4.432272778724460210e-02 6.086794413628152656e-01
-3.689299409941631525e-01 1.235417350425217498e-01 5.240195163224684594e-01
-3.400618869632024976e-01 1.671968640720136734e-01 3.830427062828148377e-01
-3.457886248811457564e-01 1.649316407982944488e-01 3.816875948899208226e-01
