4.497816056118026928e+00 1.499766225822924515e+00 3.136278169535215987e+00
4.486157957845002819e+00 1.499206036908774964e+00 3.125692837529082002e+00
4.473680871155698568e+00 1.498445679263320063e+00 3.117754424877122954e+00
4.456898910805312752e+00 1.499597811497086708e+00 3.125409214993767115e+00
4.448036624270791606e+00 1.500289698303317376e+00 3.130717417171692940e+00
4.441225801546615948e+00 1.500364627765448100e+00 3.126953935146485453e+00
4.424880685340107256e+00 1.500427634322535564e+00 3.129616107058757368e+00
4.412738263386414950e+00 1.501012764330810212e+00 3.133497562310231466e+00
4.401382314445933197e+00 1.501214436655809337e+00 3.128746843335556527e+00
4.385442242582386463e+00 1.501080970054596175e+00 3.123729949529217453e+00
4.084995722121204764e+00 1.510340079945997616e+00 2.851265989366568832e+00
3.901133876256707378e+00 1.567074738308093407e+00 2.815294243101936544e+00
3.738117982853151666e+00 1.622364986574898138e+00 2.778975337840897009e+00
3.573257633493518881e+00 1.679405874137818611e+00 2.657569957807834893e+00
3.564061660945452292e+00 1.691521160210842867e+00 2.711672498369184225e+00
3.452120540872163357e+00 1.748131840301269557e+00 2.788963574259930134e+00
3.413728723632342810e+00 1.776276716122039190e+00 2.908729184850268545e+00
3.365906546487078099e+00 1.788480040084880152e+00 2.909747356142853292e+00
3.332979539860979834e+00 1.790178170411152792e+00 2.862711096571428637e+00
3.329379689288386679e+00 1.790645714810891187e+00 2.857449296264732652e+00
3.319385304395195302e+00 1.770853182542508231e+00 2.683800365322195347e+00
3.321460801469939383e+00 1.763062418856979896e+00 2.639206481570226082e+00
3.345311797363486050e+00 1.749925989100464374e+00 2.638975696628229173e+00
3.375229387402686410e+00 1.733445680291442192e+00 2.638013524004434451e+00
3.387817844149198621e+00 1.719193516053981297e+00 2.558323867722390510e+00
3.366062300397043572e+00 1.710794101190632910e+00 2.404180185423888894e+00
3.349745911762243011e+00 1.702542428126227581e+00 2.269774723306004827e+00
3.328759094980468625e+00 1.717362630269686941e+00 2.208934700147773711e+00
3.305145463815103657e+00 1.749187232316283147e+00 2.208816367497124844e+00
3.279261758922339176e+00 1.764295161617261298e+00 2.115730002928299491e+00
3.288305329734166449e+00 1.748469200460973427e+00 2.112194124601118439e+00
3.263228894738826824e+00 1.772365410730570856e+00 1.974167176013765346e+00
3.248426046013725976e+00 1.798052218162729199e+00 1.904783541875104014e+00
3.220419085870804832e+00 1.813692499374624845e+00 1.724544954918549866e+00
3.196980462613017160e+00 1.819003540624499093e+00 1.547797634562645408e+00
3.176828076977272541e+00 1.825300083929593642e+00 1.389539340719319727e+00
3.168124973591206039e+00 1.807666706831609016e+00 1.353577764754909651e+00
3.163652555131776900e+00 1.787955509474000948e+00 1.351800131156867923e+00
3.145655058590022701e+00 1.796995040398650767e+00 1.197230872877283581e+00
3.131764607800493039e+00 1.813841338631990485e+00 1.030519712213270989e+00
3.143847208648660629e+00 1.843679000354599307e+00 9.810739951934950298e-01
3.164975614856128328e+00 1.875256262596038725e+00 9.810497498769334968e-01
3.181054447656986639e+00 1.903697301672650832e+00 9.616226787932371511e-01
3.166735462428075909e+00 1.921766626116768517e+00 7.897247501384904167e-01
3.148558043953443963e+00 1.907080830124990412e+00 7.729359352407981776e-01
3.154779544307139805e+00 1.912584076068838845e+00 7.689945451884131478e-01
3.164779577648382247e+00 1.912126533095715786e+00 6.725977394986465407e-01
3.177852326105206071e+00 1.916161995667169160e+00 5.644851755560474915e-01
3.232530195080559832e+00 1.959326357402815688e+00 4.542592341818053048e-01
3.238402438145079554e+00 1.967003655412587815e+00 4.194334853985826617e-01
3.258541813056512471e+00 1.963459105704228547e+00 5.139509351544021554e-01
3.284543405732463839e+00 1.966392970282436536e+00 6.077437511027207195e-01
3.264621043175783388e+00 1.950245553750231897e+00 6.219331603371359707e-01
3.282324303902776297e+00 1.952365388929292678e+00 6.928037463364102866e-01
3.299012403108152469e+00 1.947234172546867148e+00 8.092057082763838283e-01
3.307106911399435134e+00 1.953629830557610969e+00 8.216794857970178834e-01
3.352181785036529860e+00 2.004395521918961531e+00 8.047919887121421922e-01
3.367792457652852622e+00 2.030741637863108018e+00 7.435476036812274092e-01
3.379389657895120358e+00 2.051225101342034840e+00 7.960845915062576550e-01
3.375945614217385149e+00 2.061745900162226697e+00 8.701710470266680320e-01
3.370250167120651064e+00 2.052620996593748526e+00 8.557827628332336234e-01
3.371013221760307488e+00 2.052467068495238856e+00 8.496499531460022236e-01
3.374203889192891381e+00 2.052217639575387054e+00 8.294678067499302587e-01
3.379882272676680621e+00 2.046185257014718317e+00 7.511923301132732433e-01
3.402168153250350713e+00 2.065803102611803332e+00 7.436309668271965378e-01
3.410714976258644171e+00 2.065291367252182653e+00 6.964879628376888787e-01
3.442933765026078952e+00 2.079306658368881511e+00 7.851484474254998291e-01
3.431965808618548941e+00 2.068216478937359160e+00 7.861802160881836699e-01
3.458545584586538268e+00 2.083239471437676738e+00 8.562378738469687001e-01
3.470535105212224192e+00 2.081519736672437837e+00 9.367704397041307640e-01
3.530564760780629641e+00 2.157771835964694240e+00 9.769151941746755385e-01
3.553116419167211770e+00 2.155174555858907048e+00 1.135383465449447016e+00
3.572282977771763512e+00 2.195084530614110907e+00 1.139236576037549353e+00
3.584673132033614706e+00 2.200925468416416564e+00 1.209492426901993323e+00
3.612119083652885809e+00 2.263382826672379000e+00 1.239539744317647907e+00
3.642764034950140672e+00 2.352533753836711483e+00 1.239751392883122749e+00
3.662298666005846748e+00 2.419597116976927254e+00 1.281621231109993930e+00
3.690410363045501629e+00 2.522417075377266560e+00 1.293475086275086117e+00
3.745352154646256260e+00 2.689569439434439158e+00 1.403336721753651650e+00
3.760296054213300820e+00 2.707291424466659269e+00 1.502164436267571901e+00
3.760102572258907205e+00 2.707731388169900111e+00 1.504444401545942611e+00
