4.295208939573865514e+00 1.498057308769900065e+00 3.057405296540297801e+00
4.291450840601742200e+00 1.511352916720825945e+00 -3.124588971158724249e+00
4.288683241109793265e+00 1.519511256160870127e+00 -3.060819000727064587e+00
4.285866232574304213e+00 1.525375243274366799e+00 -3.013569269564510655e+00
4.284157068173724880e+00 1.528080384594758367e+00 -2.990745578234143665e+00
4.282229931096283693e+00 1.527835767093590036e+00 -2.990580162308822842e+00
4.278726637236088592e+00 1.530961510215969268e+00 -2.962348849439207843e+00
4.261322390463404552e+00 1.527795658212840024e+00 -2.962604308275903708e+00
4.247095369456337366e+00 1.525192937778696800e+00 -2.962849104567738756e+00
4.234871392690751080e+00 1.522949202197317220e+00 -2.963213114027215767e+00
4.218442212847834050e+00 1.512537438514732324e+00 -3.020742654796320981e+00
4.216924212936079996e+00 1.511765345135937411e+00 -3.024486340535712525e+00
4.213547173270677959e+00 1.492512658184260044e+00 3.110907969007930873e+00
4.216382668493951158e+00 1.488653370156219236e+00 3.082809859212387149e+00
4.210457854964159807e+00 1.489008373518777795e+00 3.083006039036597645e+00
4.223473177646646981e+00 1.488028557574229360e+00 3.081358901387036386e+00
4.222614848612841421e+00 1.488063423435807442e+00 3.082310955029312627e+00
4.229134474056625237e+00 1.487665999878879264e+00 3.081859722172276328e+00
4.225654773349636351e+00 1.483183353917462588e+00 3.118409625562081011e+00
4.204636348927620837e+00 1.482932497978400210e+00 3.123702410448542022e+00
4.187178316473525896e+00 1.483235239076960088e+00 3.123802615210761857e+00
4.196923734759122837e+00 1.482891745942912287e+00 3.121674849040477984e+00
4.206424336444795742e+00 1.474464287495256043e+00 3.057007404153912145e+00
4.205112482880140945e+00 1.470488064377057702e+00 3.024710335042673837e+00
4.203966647399198564e+00 1.470512850864119203e+00 3.024020523790777570e+00
4.202076443801358252e+00 1.463542728343470323e+00 2.965346147730265169e+00
4.201791196885046098e+00 1.463441958865014270e+00 2.965177520505329678e+00
4.201636299462678359e+00 1.472938861929634191e+00 3.039499491638079753e+00
4.183622281290920952e+00 1.466304687279502472e+00 2.965102808742402729e+00
4.179369057165742696e+00 1.483025901408947522e+00 3.090018635503264832e+00
4.175448282091307028e+00 1.505662707262155120e+00 -3.018390783009539113e+00
4.168464625632672060e+00 1.518608489355647295e+00 -2.910907700947351628e+00
4.160697161309399483e+00 1.517195094676129896e+00 -2.908199434544168849e+00
4.135077179762868482e+00 1.508338005455730269e+00 -2.941387082368952743e+00
4.133763945618928126e+00 1.503106647960316344e+00 -2.980443005091065523e+00
4.128287378036373134e+00 1.488575969015299982e+00 -3.104359790943846953e+00
4.123928992435649477e+00 1.493711114371815585e+00 -3.061452441227426657e+00
4.114641156154974944e+00 1.496497277674399662e+00 -3.032647866280183901e+00
4.086459727824963473e+00 1.500250746272087099e+00 -3.088090254608370167e+00
4.071155374907004187e+00 1.499607753316527292e+00 -3.090604581835441511e+00
4.068398660021921742e+00 1.498555524225769764e+00 -3.098894428795981870e+00
4.065175952583985008e+00 1.510314326781910799e+00 -3.005759900429377129e+00
4.061539201109684250e+00 1.518142681633328328e+00 -2.941622482615873224e+00
4.053907694665613626e+00 1.516598678220768104e+00 -2.942533563017219134e+00
4.038381513707484771e+00 1.513454508444617375e+00 -2.943613533064652454e+00
4.025025802137188080e+00 1.507632020386173055e+00 -3.053086851269006807e+00
4.016455133287121448e+00 1.499847178945966641e+00 -3.109292636400161403e+00
4.013765628294239107e+00 1.498663676569455205e+00 -3.118586881640157404e+00
4.010059121526631465e+00 1.502347221448898207e+00 -3.088033506400092332e+00
4.005412625109658009e+00 1.512345261987553036e+00 -3.007934535109340946e+00
3.998862427406125519e+00 1.524588258889156833e+00 -2.906280954250760828e+00
3.985570686194437773e+00 1.521379078692395970e+00 -2.907405854638913212e+00
3.973800207037490040e+00 1.518532286316497393e+00 -2.908405977924911845e+00
3.970355100924336966e+00 1.511076453364261774e+00 -2.958789010615502590e+00
3.965691988165446880e+00 1.504650365184361460e+00 -3.002152960775678725e+00
3.960418658626821742e+00 1.510973310121943580e+00 -2.946808246090494077e+00
3.958189700062814342e+00 1.505088101381955701e+00 -2.988976724952241426e+00
3.954068497128758075e+00 1.504375849959408429e+00 -2.989498336335063122e+00
3.941639782189112484e+00 1.488961579799775725e+00 -3.097841541518147057e+00
3.930139170334919996e+00 1.482124010055113184e+00 3.134801518709889212e+00
3.914475653750346229e+00 1.482218107439233989e+00 3.134933138471875047e+00
3.911980024780577825e+00 1.478795065435452916e+00 3.108527989747560394e+00
3.910353306561052289e+00 1.478131143401715919e+00 3.102996725467062067e+00
3.921264425254863628e+00 1.477128269126284588e+00 3.098927091525487842e+00
3.928973217604440293e+00 1.476774840572272041e+00 3.098685808836079136e+00
3.903134957882211875e+00 1.476782197771748129e+00 3.116537231052422641e+00
3.882642328513548957e+00 1.477579922856601335e+00 3.118683804285184991e+00
3.877472610329659730e+00 1.484994471395628901e+00 -3.108485138153616489e+00
3.873847801013381886e+00 1.484527175471786142e+00 -3.111158382832705183e+00
3.871361871988828085e+00 1.484776704726775254e+00 -3.108670938075627443e+00
3.869835262891615280e+00 1.495019429094839536e+00 -3.030328709757914130e+00
3.862528991572862669e+00 1.494344693481803876e+00 -3.030191319114970749e+00
3.856755117719600001e+00 1.491936937687917686e+00 -3.043288930769676881e+00
3.856642584548924724e+00 1.498038965589451710e+00 -2.997171015727397858e+00
3.854948174690318918e+00 1.509263712523371881e+00 -2.908098029132495821e+00
3.855740780347403529e+00 1.497651967329626688e+00 -3.002709370595962657e+00
3.851216111076666948e+00 1.503428679250912836e+00 -2.950386285220588434e+00
3.843356291675008141e+00 1.513447377080351153e+00 -2.859760794337638856e+00
3.836604664493236339e+00 1.516366272909534185e+00 -2.821935093256266569e+00
3.838571990782640331e+00 1.507124110542267692e+00 -2.895480404288779841e+00
3.837283000096378238e+00 1.486744849611693287e+00 -3.048904240585090797e+00
3.849717741947573213e+00 1.485023044970031902e+00 -3.074925034468893426e+00
3.850446741995363631e+00 1.489711415958310248e+00 -3.109704917528495205e+00
3.849590905495127835e+00 1.504933930546822785e+00 3.057914944254905176e+00
3.842618790019361796e+00 1.505672960291580598e+00 3.056531257024759363e+00
3.858974335373668740e+00 1.506218103684791032e+00 3.070192249257066575e+00
3.865949544834618390e+00 1.499460553727457901e+00 3.117548262682226401e+00
3.865295537378645285e+00 1.496417950265614305e+00 3.140404012259588207e+00
3.856951180337735874e+00 1.482528380743781682e+00 -3.042572975321251150e+00
3.831975218063504052e+00 1.480075213895035269e+00 -3.041825907447563981e+00
3.830362111183784002e+00 1.474844687130021148e+00 -3.081372290867295582e+00
3.807992701564574478e+00 1.472932137870395453e+00 -3.074000444508936614e+00
3.805142791418810511e+00 1.470662230613411836e+00 -3.090482273892737997e+00
3.798367481068158025e+00 1.468581067274996155e+00 -3.076415071979050175e+00
3.792030725887700626e+00 1.469116715502409409e+00 -3.047284214281863690e+00
3.789895462352906641e+00 1.465899917794813989e+00 -3.071724551104726419e+00
3.785906272715414023e+00 1.467250825501943856e+00 -3.050161746169242516e+00
3.783833564848748221e+00 1.470165212109349362e+00 -3.025461625312572345e+00
3.769321255699247253e+00 1.474919719810476648e+00 -2.972787740626633646e+00
3.765019991529188204e+00 1.478327050275878740e+00 -2.940260538352693409e+00
3.755840183027686408e+00 1.478834268298821586e+00 -2.920893030566046988e+00
3.747629767335684203e+00 1.487057414529461052e+00 -2.843456927105503684e+00
3.739752918418258076e+00 1.496076988686701137e+00 -2.757675299051715267e+00
3.736967167858400440e+00 1.484738984988971389e+00 -2.832910195681264121e+00
3.737460786332532869e+00 1.469433275685530171e+00 -2.947674129449380676e+00
3.733929682631564884e+00 1.470546761642085087e+00 -2.932759475779289637e+00
3.724337758707548129e+00 1.480041602205592222e+00 -2.844526795231068661e+00
3.721317458547657608e+00 1.483466185126618431e+00 -2.811729916467037071e+00
3.719068119340110279e+00 1.469439067585851744e+00 -2.911407430146714770e+00
3.718160130228949534e+00 1.467977337354884781e+00 -2.921412965751814639e+00
3.698601874166947301e+00 1.462811315691024072e+00 -2.928187056671418986e+00
3.697994552106071531e+00 1.449878190849545501e+00 -3.024474522185906178e+00
3.697258294304226478e+00 1.443848499903314986e+00 -3.069688688875554572e+00
3.690167460141307920e+00 1.443245015505005835e+00 -3.070242071552148122e+00
3.700579945463373210e+00 1.439376974067785753e+00 -3.102895755112743625e+00
3.673101483960706126e+00 1.437765748986225001e+00 -3.099266517988191083e+00
3.649235715791448786e+00 1.436829105183792699e+00 -3.098504820283249028e+00
3.640635340224671612e+00 1.442791942705076824e+00 -3.048774052011136160e+00
3.639925384027830724e+00 1.442946890711623187e+00 -3.047063962077245058e+00
3.635797838917814051e+00 1.440413991356519707e+00 -3.063385297408819596e+00
3.630270014596050920e+00 1.453501175203416373e+00 -2.958711046059085081e+00
3.623182403420041719e+00 1.461933149883318350e+00 -2.883985428578835553e+00
3.614579808965752150e+00 1.460394595418471386e+00 -2.878106824176636103e+00
3.601416585298909290e+00 1.457403899274248849e+00 -2.882100607197347397e+00
3.582398157772676228e+00 1.452357424104752548e+00 -2.882449088490769196e+00
3.579165592696786913e+00 1.433729837247276873e+00 -3.014471075456064408e+00
3.581354270128153328e+00 1.424160851263119643e+00 -3.088956631104484263e+00
3.576683860057890296e+00 1.424988963357531002e+00 -2.953007660853323113e+00
3.567828215494126542e+00 1.443945869521060299e+00 -2.796252011079614075e+00
3.565756215153479847e+00 1.450232048830605969e+00 -2.742767576313815958e+00
3.561360091000264738e+00 1.459056474281041460e+00 -2.863221549370726926e+00
3.560029235769126998e+00 1.459372352403898843e+00 -2.852116574884571598e+00
3.556663870351078227e+00 1.463567149010759350e+00 -2.890569175246510802e+00
3.554811244841977746e+00 1.468165564854669203e+00 -2.927757193260659641e+00
3.561200641728838878e+00 1.474414197795209436e+00 -2.976268935755516765e+00
3.557790388683715221e+00 1.477929094564229384e+00 -2.933291034601067881e+00
3.558574273569346413e+00 1.464415192836315160e+00 -2.831981183843717886e+00
3.555964275480291814e+00 1.468369914382367414e+00 -2.866179583186228008e+00
3.552295488015263292e+00 1.487731337230182138e+00 -3.019056540016024304e+00
3.546466991839727800e+00 1.487139731363052997e+00 -3.021840238145681923e+00
3.545949413907606651e+00 1.497575510990209136e+00 -2.932864244877311233e+00
3.543508350765304904e+00 1.495494786340192839e+00 -2.920707534248728532e+00
3.542842865697134691e+00 1.495862436970756937e+00 -2.924585608206417664e+00
3.540495872502952501e+00 1.501890466955444481e+00 -2.973123185090523091e+00
3.550988781403215722e+00 1.504405741706662081e+00 -2.956226180674890625e+00
3.554806529527090753e+00 1.491154182474901280e+00 -2.851946866336000141e+00
3.564264632913112241e+00 1.503227634747466901e+00 -2.921627086858308076e+00
3.561905075186150960e+00 1.512346684682494669e+00 -2.993350231649323234e+00
3.560121049224498790e+00 1.516517880334238733e+00 -3.028014724857707840e+00
3.554519811205339774e+00 1.515934687830990280e+00 -3.029024399129101042e+00
3.563055926539775875e+00 1.519235305717732132e+00 -3.011794132606702590e+00
3.580022270253100380e+00 1.515242731420881839e+00 -2.962615663419092105e+00
3.580786910451296823e+00 1.504386883154945842e+00 -2.880586147325419066e+00
3.596908937849255583e+00 1.509600460732291483e+00 -2.887318372107651854e+00
3.596596561302057626e+00 1.507254657031765754e+00 -2.870532934544045567e+00
3.588995933919001846e+00 1.518624150180136301e+00 -2.968202242069193364e+00
3.588249783316795227e+00 1.531338692615959118e+00 -3.065263619202893697e+00
3.582048933036311222e+00 1.531208134977384949e+00 -3.067671801005257937e+00
3.601960788966303895e+00 1.532714148498256712e+00 -3.066642955097758527e+00
3.600519387079005984e+00 1.532606824480054586e+00 -3.066343971196969775e+00
3.605729328644954990e+00 1.527679237270164636e+00 -3.024926097138156411e+00
3.610199950899100507e+00 1.511565393819339187e+00 -2.896468737923441061e+00
3.609711980607838822e+00 1.511079850801631208e+00 -2.894479988313039431e+00
3.605641309924302540e+00 1.508287116821189544e+00 -2.880672783613834387e+00
3.626852277771495991e+00 1.514208303183448789e+00 -2.885248167263491759e+00
3.624923090839268003e+00 1.521078035050334343e+00 -2.940149955265824566e+00
3.622359614819756324e+00 1.528528053201059889e+00 -3.000290858927959547e+00
3.622548122489438693e+00 1.541034605769034060e+00 -3.096419789275525858e+00
3.621122368362962529e+00 1.544419773686667829e+00 -3.123271369597892200e+00
3.644792108184631285e+00 1.545196757800965770e+00 -3.119841012876421349e+00
3.646568927029471663e+00 1.544429788683920446e+00 -3.108184456557836040e+00
3.656696741556067387e+00 1.532936158211347211e+00 -3.013986048345038693e+00
3.654599871542043132e+00 1.532365118727710973e+00 -3.012502698080937957e+00
3.653962496556205863e+00 1.531665795174333100e+00 -3.018894493509543420e+00
3.654014461231017474e+00 1.527013924961221125e+00 -2.979670863982502471e+00
3.653613177778566978e+00 1.525908462607677540e+00 -2.970700275816261726e+00
3.647400030452502495e+00 1.524797513674760463e+00 -2.970691834706009615e+00
3.647977933962577968e+00 1.514307088784383026e+00 -2.879708047248162650e+00
3.648028039055918548e+00 1.506828837498095597e+00 -2.824012784161793466e+00
3.649421304709006719e+00 1.496418905071831285e+00 -2.901689832791056745e+00
3.646566004545263695e+00 1.492318142558501703e+00 -2.928608640551422226e+00
3.643436318966537080e+00 1.490973847128212126e+00 -2.922807024968395950e+00
3.643018061610463487e+00 1.478386699781658598e+00 -3.019129787257802011e+00
3.640924333744493424e+00 1.480050437377817607e+00 -2.992163690068357251e+00
3.639450471497110762e+00 1.481793802665350102e+00 -2.957256684755359633e+00
3.636470293812317678e+00 1.481485392684913638e+00 -2.935535995920496077e+00
3.635600170660315378e+00 1.479063643107580539e+00 -2.953744105172873002e+00
3.636014409457376750e+00 1.478147919721055414e+00 -2.962336212298537941e+00
3.633972403830218134e+00 1.477761786597046489e+00 -2.961551832745609403e+00
3.633803593935346132e+00 1.477726407138366893e+00 -2.962823286552943802e+00
3.631652838897819091e+00 1.470363875476351501e+00 -3.017434209270961620e+00
3.631846069635440877e+00 1.468115226476571111e+00 -3.035938338439742701e+00
3.630083685159672058e+00 1.468256067098182793e+00 -3.031207082085870752e+00
3.624295850039965128e+00 1.482655423181316712e+00 -2.912908108411759400e+00
3.620146197163705892e+00 1.491404200296037263e+00 -2.839043363012842214e+00
3.618564426851656801e+00 1.493589314831558212e+00 -2.818457370086218106e+00
3.620875832416582174e+00 1.481345169438397447e+00 -2.915167410439594597e+00
3.618696760253346412e+00 1.480404274718362778e+00 -2.918427696841830343e+00
3.617928446875801285e+00 1.469088423580460212e+00 -3.004638043734806363e+00
3.617763618976439055e+00 1.468779656545731838e+00 -3.006667979745230479e+00
3.613298309527128716e+00 1.479101542197684749e+00 -2.920480323876983419e+00
3.611027270029721681e+00 1.466168358837819152e+00 -3.017643134709139918e+00
3.608000843844943351e+00 1.452926637828563017e+00 -3.117840152794523867e+00
3.605941177359686112e+00 1.447334713562755226e+00 3.121576141147560879e+00
3.602664174186822610e+00 1.459917569318171848e+00 -3.062685833434182658e+00
3.597817772865758990e+00 1.473293814300203008e+00 -2.955457576591947966e+00
3.594291314613493604e+00 1.462069326457586804e+00 -3.039018191429606386e+00
3.593014442960289045e+00 1.454473726075152573e+00 -3.097212590160689949e+00
3.590817042669775638e+00 1.442461801304140145e+00 3.093084841617171232e+00
3.587930752153924541e+00 1.456374404856425775e+00 -3.080826500507214849e+00
3.585590033919509256e+00 1.463524756991491538e+00 -3.023784899584553543e+00
3.580038538580176510e+00 1.470120014960123234e+00 -2.966696773319493552e+00
3.572251083209076139e+00 1.484774361186958380e+00 -2.842770128017861442e+00
3.571577469656741055e+00 1.483767018533019399e+00 -2.850268177857809615e+00
3.571027539372486626e+00 1.476536389537437710e+00 -2.903570661683350540e+00
3.567252530453947301e+00 1.475941657777435134e+00 -2.899481424722889500e+00
3.556535722510123954e+00 1.482934180509231981e+00 -2.823922383086445720e+00
3.553288929318799472e+00 1.485972562955662379e+00 -2.792857782405125278e+00
3.554009559401579477e+00 1.475011278870094644e+00 -2.883540039110755071e+00
3.552770417578805962e+00 1.461287418008288874e+00 -2.985235217205090219e+00
3.552062058519442900e+00 1.448424512022832289e+00 -3.083343879784441466e+00
3.546814262930772621e+00 1.453286006087188609e+00 -3.040928811115037877e+00
3.543417890535448311e+00 1.450770820984432774e+00 -3.059324980011152384e+00
3.541661563828631287e+00 1.455009900630809705e+00 -3.023870411661624402e+00
3.540682118805095424e+00 1.454917625210961463e+00 -3.023216421689268518e+00
3.540322624420543907e+00 1.454874575345303178e+00 -3.023342255904175158e+00
3.538411766110010959e+00 1.444479327205173469e+00 -3.102827347186095874e+00
3.533838378751895437e+00 1.460016135563080075e+00 -2.978697155381521799e+00
3.527387029731580359e+00 1.476999094358508957e+00 -2.840274232504622631e+00
3.517793786332341632e+00 1.490243937634142757e+00 -2.718932726684764045e+00
3.506605972323139753e+00 1.491382515773579831e+00 -2.759860652585944152e+00
3.496016891660780779e+00 1.483838917712021255e+00 -2.810587013482570562e+00
3.493569128244526478e+00 1.484044914335465037e+00 -2.801374087705037041e+00
3.492173668480432980e+00 1.483563156182583720e+00 -2.802099977791926655e+00
3.492832612595050179e+00 1.474387906646340340e+00 -2.871582971689073727e+00
3.490136981568369379e+00 1.458311267594190941e+00 -2.988299461632330623e+00
3.489531451721337607e+00 1.457898346326724326e+00 -2.990066557373770362e+00
3.485193038867128834e+00 1.463905446386844389e+00 -2.937856238740898629e+00
3.477014469591117152e+00 1.479520701005815786e+00 -2.805222925559599290e+00
3.475605299933794523e+00 1.474693295748801258e+00 -2.838224945162694191e+00
3.470855084600630303e+00 1.462069615886916862e+00 -2.922836737733312429e+00
3.466162829468355966e+00 1.459062805622723724e+00 -2.938590502146879668e+00
3.461530910464384547e+00 1.453459877698370928e+00 -2.974954417335062384e+00
3.451561678280262502e+00 1.466916477826649023e+00 -2.855123049251206080e+00
3.450872916238475252e+00 1.459447198870246210e+00 -2.910027694643245511e+00
3.448479172417595606e+00 1.443232532215582120e+00 -3.029751804500766532e+00
3.444566373388708858e+00 1.431330384502875974e+00 -3.118911205944304932e+00
3.442468768050915617e+00 1.426436535465767763e+00 3.126538739871129735e+00
3.433954062129444651e+00 1.426564171001857728e+00 3.127125786621332892e+00
3.402749491710000296e+00 1.428493878282865115e+00 3.139662775235304348e+00
3.392268395835527528e+00 1.448824267447121228e+00 -2.982200986269394338e+00
3.383694324333902603e+00 1.466668408266856405e+00 -2.835118347585533716e+00
3.381044024689821459e+00 1.466030929432430074e+00 -2.833699524374312162e+00
3.361344120462113949e+00 1.459758316868263295e+00 -2.833869409292513630e+00
3.356770021679794880e+00 1.468666568635412339e+00 -2.758388351535491445e+00
3.363530357987934760e+00 1.471438918688492414e+00 -2.758102502698028591e+00
3.338897848370998123e+00 1.461572047664939866e+00 -2.758731929409897532e+00
3.323497870151543410e+00 1.455320142168000874e+00 -2.759166773729605726e+00
3.307447433384539615e+00 1.441718932885819537e+00 -2.811121016772273773e+00
3.307836153328774564e+00 1.430770178039482143e+00 -2.892021430929275549e+00
3.302945469228125042e+00 1.422174175598214907e+00 -2.947622036312650184e+00
3.295369507105873286e+00 1.420575515000435551e+00 -2.948260640470814486e+00
3.285924242252133531e+00 1.418729172174799880e+00 -2.948218739942618960e+00
3.284186719091207074e+00 1.417042515609963971e+00 -2.958270626591902097e+00
3.265864263236568199e+00 1.417638771161257472e+00 -2.927002645714559481e+00
3.261957271845952633e+00 1.424247178576903305e+00 -2.871266859022147067e+00
3.249235097806341344e+00 1.413438188124081174e+00 -2.926372635927025456e+00
3.247917932202663671e+00 1.409567809137022509e+00 -2.952705151369733549e+00
3.240166669490315066e+00 1.418258234591026179e+00 -2.875631473657848769e+00
3.233001755449592451e+00 1.427171960453930133e+00 -2.794613832927199670e+00
3.222466579570251621e+00 1.432973321276232115e+00 -2.722285510304952361e+00
3.219153936366486946e+00 1.431579097459489525e+00 -2.721832033435453546e+00
3.216548037822399841e+00 1.430422084646827185e+00 -2.720872558083204940e+00
3.211379224918267550e+00 1.436353085949578556e+00 -2.661409789048552632e+00
3.210032621199407021e+00 1.425589016979901924e+00 -2.733031602672786775e+00
3.201281772625214295e+00 1.427272139549236485e+00 -2.679185484320465438e+00
3.200496744234375246e+00 1.427620034004598804e+00 -2.673145418555940456e+00
3.203999771709489686e+00 1.415875574852502039e+00 -2.767422521522641787e+00
3.207678144003006437e+00 1.406647122276642348e+00 -2.843200976291217597e+00
3.191714703077045190e+00 1.401568738039604467e+00 -2.841753467416521683e+00
3.187806347585333988e+00 1.400367492327591057e+00 -2.841542419326532620e+00
3.154110110355719421e+00 1.389767848727706756e+00 -2.834168439743112167e+00
3.153483217241397352e+00 1.383409581922251386e+00 -2.879936665123986828e+00
3.153640963343000259e+00 1.373997458333569011e+00 -2.950617885760163261e+00
3.131546197672064213e+00 1.369713367742285914e+00 -2.948935043594556049e+00
3.109722779787930769e+00 1.364996228824004509e+00 -2.935541440663469448e+00
3.094948795616307535e+00 1.372738204497478298e+00 -2.851886737897458168e+00
3.088235407263844046e+00 1.378991340478586736e+00 -2.789522292132229353e+00
3.075745450929619373e+00 1.368608896161400246e+00 -2.834793187138897608e+00
3.076720062169485903e+00 1.348579688778655195e+00 -2.985941660118070384e+00
3.072769164477070269e+00 1.347622180227572075e+00 -2.987658182556645059e+00
3.046464810018981506e+00 1.344634802726831335e+00 -2.975689845816898327e+00
3.041061781936573283e+00 1.354047937223776810e+00 -2.896239138914830313e+00
3.030873668576239854e+00 1.372773931626896093e+00 -2.735135694564446940e+00
3.025472632878560830e+00 1.364862496045740947e+00 -2.776037563752881798e+00
3.022464239708225975e+00 1.354908242480144631e+00 -2.841095595344751867e+00
3.020352304370145902e+00 1.354005196333956995e+00 -2.842699921895066151e+00
3.019260223238185326e+00 1.351895857279927560e+00 -2.856696368918108409e+00
3.011901536829697523e+00 1.352032253538441475e+00 -2.838225753587369837e+00
3.000736535645760483e+00 1.367080557060745383e+00 -2.699768366695522559e+00
2.987641097035741211e+00 1.375912616750430750e+00 -2.592609323846597480e+00
2.971009573071162979e+00 1.366026759853694594e+00 -2.591059662213188730e+00
2.966131382234086455e+00 1.370390922386752974e+00 -2.542100004473596631e+00
2.957229086664039830e+00 1.364382119736056387e+00 -2.542460892433110686e+00
2.942846004767213142e+00 1.348223777123493949e+00 -2.584758835308669234e+00
2.941210208092546186e+00 1.324725423492118859e+00 -2.738224989587924263e+00
2.950739629294042210e+00 1.306879165840685753e+00 -2.888217648298597062e+00
2.972009627225131290e+00 1.312250966704709754e+00 -2.889119346245037079e+00
2.969122426719962959e+00 1.310215398273804288e+00 -2.878532142632097113e+00
2.962215289278053554e+00 1.299601651289549631e+00 -2.817044411626996592e+00
2.947905752470468599e+00 1.294741092733550314e+00 -2.816562493472882789e+00
2.932953370431862883e+00 1.289681968491743325e+00 -2.816403152735891258e+00
2.937191021651754497e+00 1.279864503040780255e+00 -2.896781318153522022e+00
2.941962890230260363e+00 1.280982065373736267e+00 -2.897322172504047444e+00
2.923554119164918585e+00 1.275437260329395084e+00 -2.890791976262749419e+00
2.906863108755829206e+00 1.271142904863006962e+00 -2.890645541094292170e+00
2.905455041345506473e+00 1.270497952282841458e+00 -2.892848264795961466e+00
2.904753766421062089e+00 1.265672468389045680e+00 -2.927179356862960269e+00
2.900945740762081115e+00 1.264728330405680889e+00 -2.926430731793556728e+00
2.893271975495284476e+00 1.258063103290149698e+00 -2.965102594148485871e+00
2.879492879043280329e+00 1.255056382945765936e+00 -2.962419078867457589e+00
2.868901643717036265e+00 1.253100935887299539e+00 -2.962092887272103514e+00
2.856453728436472606e+00 1.261612757672439633e+00 -2.876140707557699905e+00
2.846310777008920656e+00 1.276431966791945039e+00 -2.744317600323283646e+00
2.835565090894878182e+00 1.274388968139865685e+00 -2.725498402667911435e+00
2.830961174209192244e+00 1.272910003728779493e+00 -2.720431055114691521e+00
2.826536596581865179e+00 1.276715304749983959e+00 -2.678147159057893578e+00
2.821236278872212289e+00 1.281930441905679841e+00 -2.622751994306347978e+00
2.826655606883454741e+00 1.269033942556834660e+00 -2.733225298048723051e+00
2.814363573025729703e+00 1.253390246104600259e+00 -2.812453308576160715e+00
2.814969482321135974e+00 1.252154877375404096e+00 -2.825706251697674531e+00
2.817097654277648466e+00 1.235326529455795130e+00 -2.701041299600182910e+00
2.815437533289232963e+00 1.234525336522042105e+00 -2.701302235639680305e+00
2.833587518445150888e+00 1.231408999245099833e+00 -2.776783287684154278e+00
2.842292991403642777e+00 1.235590032984500874e+00 -2.782922903025691674e+00
2.837498849396656198e+00 1.244379132308832459e+00 -2.858089997364244184e+00
2.833851519926156026e+00 1.261287911802531303e+00 -2.990084439784432835e+00
2.852535442125028631e+00 1.264531646591585901e+00 -2.991020738828724657e+00
2.853784959236966845e+00 1.264598987558147147e+00 -2.990069334391005640e+00
2.859577593762303582e+00 1.251786231536750948e+00 -2.885971183586484745e+00
2.860301075684540173e+00 1.251560805839153190e+00 -2.883256137355918902e+00
2.862280951632393489e+00 1.246238137937621282e+00 -2.840228062584920554e+00
2.863990480017455376e+00 1.235427442405121035e+00 -2.758167915449612373e+00
2.863523082012568999e+00 1.229154711361648555e+00 -2.715171577818368043e+00
2.877212220650232855e+00 1.235285839875388092e+00 -2.715647653372645465e+00
2.885255067555717812e+00 1.238963547854903258e+00 -2.716056067360260950e+00
2.887504273233327368e+00 1.241216920206024366e+00 -2.725113308405743950e+00
2.894522104661400697e+00 1.231063325545164400e+00 -2.631277130551899823e+00
2.900356199099178411e+00 1.234022797828383089e+00 -2.629787876455106588e+00
2.905424448275588212e+00 1.245527730320814097e+00 -2.688676931528492187e+00
2.900839473683707759e+00 1.256768501179527764e+00 -2.781797502915344111e+00
2.897840756145563912e+00 1.259133807940766347e+00 -2.807046176950207084e+00
2.894660287213770111e+00 1.269481220789103970e+00 -2.890163898171919321e+00
2.905955615006894810e+00 1.272562562558628541e+00 -2.891342415952268929e+00
2.922648187763117633e+00 1.276811040239419492e+00 -2.890523899030700061e+00
2.930434579705250009e+00 1.275359288808249447e+00 -2.864133128835338660e+00
2.934970933553563643e+00 1.260505900011339886e+00 -2.745113685535955916e+00
2.936105018667474642e+00 1.254136816804605203e+00 -2.696630892660301093e+00
2.954272683571974589e+00 1.264994649349925560e+00 -2.714893394088504497e+00
2.950489275202362371e+00 1.273054613009745317e+00 -2.783526449205695918e+00
2.947953792484763635e+00 1.276244675124633021e+00 -2.813752109151371084e+00
2.947705443891364574e+00 1.276280289239364096e+00 -2.814513777192053645e+00
2.946247380122768433e+00 1.278607737443374415e+00 -2.835917345416293589e+00
2.941800894578287640e+00 1.277317260445967939e+00 -2.837667953102884333e+00
2.940891887258987314e+00 1.279435666154985052e+00 -2.856151745669937903e+00
2.937325549049188744e+00 1.292486592395377221e+00 -2.961976362962615017e+00
2.941778496431329604e+00 1.293605812711065006e+00 -2.963351618913940833e+00
2.937535633215721642e+00 1.292840557287399772e+00 -2.963546489098026981e+00
2.933835097576575013e+00 1.307763659473164752e+00 -2.843456956075889774e+00
2.931467202948408790e+00 1.315827621171983486e+00 -2.901881805010971149e+00
2.921962621289687423e+00 1.315372512604643385e+00 -2.916580347051437982e+00
2.917186847142286155e+00 1.322293481457315290e+00 -2.852315865047045484e+00
2.915832591151986453e+00 1.328100815438064686e+00 -2.924054034262291157e+00
2.915367999483099659e+00 1.342862151052668596e+00 -3.043041845824064673e+00
2.911496796836960499e+00 1.348519499848564118e+00 -3.001331326451816217e+00
2.907846675557716143e+00 1.349793020991096659e+00 -2.986350266339815374e+00
2.903525593463302634e+00 1.359389055561068149e+00 -2.906551864883830216e+00
2.897842857090707103e+00 1.368234482041597699e+00 -2.828292228754646587e+00
2.889638777540179504e+00 1.379458892814252602e+00 -2.724321611923770536e+00
2.878411036861519001e+00 1.393637836167880506e+00 -2.587144687607933147e+00
2.879828960220676581e+00 1.391446993285064382e+00 -2.608909975986172913e+00
2.880555093344375983e+00 1.388436310615189795e+00 -2.632791529051231816e+00
2.885355729883365861e+00 1.370903684004284528e+00 -2.771746964733099450e+00
2.882441839639057868e+00 1.370727295449941652e+00 -2.762369514940623549e+00
2.878402959698002750e+00 1.373230581320495247e+00 -2.731122729790612436e+00
2.882266594504510948e+00 1.357267075328344008e+00 -2.859957320989519047e+00
2.880195610086826008e+00 1.360120378392249307e+00 -2.832487195873184760e+00
2.876419120868436874e+00 1.365526289213876865e+00 -2.782906034401123385e+00
2.876556872225946915e+00 1.362940161632183678e+00 -2.804113876222450674e+00
2.878062480275997093e+00 1.349806349684156359e+00 -2.905385664150330172e+00
2.877274277364795019e+00 1.349192418168600582e+00 -2.907819842713492697e+00
2.875872551087770734e+00 1.348289466997502739e+00 -2.913601130257836402e+00
2.875080879718426186e+00 1.350579172493420410e+00 -2.893210420208616629e+00
2.868086082015104843e+00 1.361070607255401965e+00 -2.799016187501082165e+00
2.868775394102407894e+00 1.351661912032229518e+00 -2.871499172886911033e+00
2.866063153412725217e+00 1.345765492864145818e+00 -2.911116752726601309e+00
2.863628595198022264e+00 1.347704738340834041e+00 -2.890585186175147925e+00
2.854620968296893491e+00 1.363482104554497587e+00 -2.751876506942620537e+00
2.852439691252003584e+00 1.363217670317153685e+00 -2.749285576213518212e+00
2.844168155121426178e+00 1.373642387059811565e+00 -2.647367771810700265e+00
2.836624755553155186e+00 1.369941311164707187e+00 -2.646193086185433696e+00
2.820605236966806650e+00 1.374358284999489532e+00 -2.551891103006660444e+00
2.812770196236031417e+00 1.380602436730236748e+00 -2.477346957933769023e+00
2.811935571747690599e+00 1.380381432371708961e+00 -2.474203635950148250e+00
2.813404981329338916e+00 1.371862478427519294e+00 -2.536476072222007438e+00
2.818972212701567504e+00 1.357346728681772641e+00 -2.654219816746789196e+00
2.820371793099276214e+00 1.350555617621784110e+00 -2.706428582985843434e+00
2.825066099409969222e+00 1.333661623956204467e+00 -2.841028104651810438e+00
2.819894730548144324e+00 1.318196494185800205e+00 -2.946859498886717166e+00
2.814329207435492641e+00 1.328021162816066303e+00 -2.862383036971385408e+00
2.805637652644759505e+00 1.335176013216746949e+00 -2.788877497443650988e+00
2.802514449380975048e+00 1.327366786935419762e+00 -2.839416821586379314e+00
2.799852328993676309e+00 1.326411602695920511e+00 -2.840180125379435871e+00
2.798183683346729733e+00 1.326616689581733732e+00 -2.833528360793446499e+00
2.776757997296950720e+00 1.328609599925058227e+00 -2.763329853443680317e+00
2.772599010528070895e+00 1.332456157908588734e+00 -2.723111069422018637e+00
2.761637012497876409e+00 1.335938311650332722e+00 -2.662072285897772339e+00
2.760178963710985922e+00 1.335249678251042571e+00 -2.662727493465080197e+00
2.749114214608300522e+00 1.326673716668588465e+00 -2.683274352375183192e+00
2.750568797608321958e+00 1.316960053392685293e+00 -2.756194527517024540e+00
2.750068950749228414e+00 1.314536068456648277e+00 -2.772749184742308692e+00
2.747847265626556457e+00 1.313624022663676394e+00 -2.772289742056672335e+00
2.740291308245771162e+00 1.321722423205232255e+00 -2.691830063601226453e+00
2.723467122273738106e+00 1.325923707479109481e+00 -2.602042722371600725e+00
2.713833264571690052e+00 1.334711149659990159e+00 -2.505298621092166833e+00
2.711943561505230971e+00 1.333400853480080306e+00 -2.504895547641091014e+00
2.689761962305007970e+00 1.316978090004262025e+00 -2.505966521644400480e+00
2.688754415160369060e+00 1.299764770974374484e+00 -2.608901921935847579e+00
2.691272655590345675e+00 1.290821779138326963e+00 -2.678011435748500091e+00
2.696322072615006782e+00 1.279030203136643173e+00 -2.775472642449368088e+00
2.717389974503023442e+00 1.286528042594334398e+00 -2.778978827320151446e+00
2.708312160383437472e+00 1.282739417106188995e+00 -2.776384266970712389e+00
2.684394009371486423e+00 1.273593496821951554e+00 -2.776369527932138759e+00
2.683026568691395664e+00 1.270881252049153698e+00 -2.792188972905905953e+00
2.672214295746512480e+00 1.266932690790372851e+00 -2.792060436323775541e+00
2.653097598419451586e+00 1.259992069216269384e+00 -2.791623754664901647e+00
2.638097965790682231e+00 1.255748800405105614e+00 -2.782457266178081312e+00
2.633895844882321757e+00 1.260378070987515420e+00 -2.737703904098830243e+00
2.622543221833114391e+00 1.274027314575359560e+00 -2.605487280471543432e+00
2.621103264052359716e+00 1.273623495159480257e+00 -2.602517408888439743e+00
2.604241145438460414e+00 1.263517178803791774e+00 -2.602844725420494498e+00
2.599029726491094205e+00 1.251439445422308339e+00 -2.662057366950723925e+00
2.602433896442950090e+00 1.237177575175004929e+00 -2.771937531473636085e+00
2.620342530712580498e+00 1.239081899522182173e+00 -2.803580745909606708e+00
2.604544709774012201e+00 1.232544906809515339e+00 -2.796054327145858220e+00
2.574731543335441852e+00 1.221794673883978000e+00 -2.795894613759157377e+00
2.556968391971112808e+00 1.227338601757689274e+00 -2.708766605390268367e+00
2.555330765265427129e+00 1.226998361703715013e+00 -2.705902763792065180e+00
2.550868781970567767e+00 1.227870624556964829e+00 -2.685269945936774150e+00
2.557467150309035819e+00 1.231657065269606388e+00 -2.681709052164705120e+00
2.575329145534386299e+00 1.240776199909278565e+00 -2.679430319793936199e+00
2.566845718467085202e+00 1.224856288747939059e+00 -2.784280926504250075e+00
2.554127445644454042e+00 1.213109324071429462e+00 -2.833959750046186610e+00
2.544922166864596047e+00 1.223537666356054210e+00 -2.736398787928941534e+00
2.552731434118090004e+00 1.228303432320860811e+00 -2.727074214878762781e+00
2.538664149376459456e+00 1.222711292587671084e+00 -2.731325475398340696e+00
2.512663617881957023e+00 1.212415198882098588e+00 -2.787473147411381191e+00
2.516924135979461408e+00 1.200028633204475170e+00 -2.688283803584769593e+00
2.498058791863946748e+00 1.189583565392539954e+00 -2.662938895662785743e+00
2.493338522408284685e+00 1.190456942320512024e+00 -2.638847791764135309e+00
2.497451969659848281e+00 1.179486682994311586e+00 -2.729873059524811740e+00
2.496036879164856614e+00 1.171113251382177367e+00 -2.786247912732016552e+00
2.487970289784756872e+00 1.159673149425396455e+00 -2.730497654222129089e+00
2.489506464030248445e+00 1.156813581924073908e+00 -2.756187794977902339e+00
2.490498809551501491e+00 1.157166065832484492e+00 -2.756718106413988956e+00
2.490918417014031938e+00 1.157290166581152580e+00 -2.757268758897675198e+00
2.473849964863660489e+00 1.150102626841350340e+00 -2.754764522608487809e+00
2.458360165834711175e+00 1.143828669333157855e+00 -2.754314140238038888e+00
2.429797813560766073e+00 1.131871242468985406e+00 -2.746040264765195360e+00
2.428960156870159093e+00 1.131511994541317678e+00 -2.746178863730582620e+00
2.421487491434616057e+00 1.135102390325306132e+00 -2.696604356165196226e+00
2.421409096560611207e+00 1.123923952436445273e+00 -2.776163443772582173e+00
2.419487618009376284e+00 1.123111255032995581e+00 -2.776980530369786759e+00
2.412629577172022532e+00 1.122546402000028865e+00 -2.747913083602037787e+00
2.412278939058754457e+00 1.119216648722637375e+00 -2.771851496746846610e+00
2.388980191742231085e+00 1.118025427954223883e+00 -2.707940479364681963e+00
2.379369626730901022e+00 1.125414300661043088e+00 -2.623324878807622440e+00
2.376273045187489608e+00 1.123697985162833923e+00 -2.624358952981608706e+00
2.379645900181140306e+00 1.112062964066156789e+00 -2.716216899368251170e+00
2.376649567885744219e+00 1.113613426896541192e+00 -2.694394117472191041e+00
2.371483295789078571e+00 1.116724465840664759e+00 -2.654529117958003948e+00
2.363850189136212698e+00 1.123194800902631130e+00 -2.581724639537676502e+00
2.364698633606453715e+00 1.117593380920514301e+00 -2.623352490661845060e+00
2.368174258013977962e+00 1.102557366885726253e+00 -2.739000130694766888e+00
2.352932470619426120e+00 1.077988434406128126e+00 -2.879036905685122605e+00
2.333115695191291916e+00 1.072130745524763062e+00 -2.883285531065635343e+00
2.325454756379112808e+00 1.070123821370355222e+00 -2.882734338646417704e+00
2.299888289868677216e+00 1.064311240679046033e+00 -2.874630028591445452e+00
2.292097015055600817e+00 1.076391779225752909e+00 -2.768031673837249240e+00
2.275733848394475789e+00 1.091384406502741156e+00 -2.609950844942249937e+00
2.272781422753840097e+00 1.097231441668396368e+00 -2.560430723391977637e+00
2.258608318544959026e+00 1.087941478111720484e+00 -2.561098562148163005e+00
2.239935698267949249e+00 1.080191940126025596e+00 -2.529078544763592173e+00
2.214674437415489638e+00 1.062716298763949574e+00 -2.530604747859166004e+00
2.196773418379216469e+00 1.049889207078682274e+00 -2.532394730767104640e+00
2.192143981513607010e+00 1.051140821269013870e+00 -2.504536021627116416e+00
2.190980830270253588e+00 1.034160556353570071e+00 -2.604446181278894379e+00
2.187507211433915799e+00 1.031613661353742994e+00 -2.607633971561636343e+00
2.188772579628781578e+00 1.028461213082392911e+00 -2.632929071371876706e+00
2.200491182174495908e+00 1.023722315711426800e+00 -2.703718199581709225e+00
2.189326057318334851e+00 1.016902158458192762e+00 -2.693296525052007784e+00
2.165221699221880680e+00 1.009164281951870468e+00 -2.664224264057274194e+00
2.158174237224040670e+00 1.018475646199350271e+00 -2.576583722053988890e+00
2.145349814183829640e+00 1.008642809694272335e+00 -2.587514329934601953e+00
2.145953634580121339e+00 1.010329059088802994e+00 -2.578743538307142646e+00
2.149061026478368053e+00 1.004043602022762327e+00 -2.634777510554679125e+00
2.144373107940932055e+00 1.010160648170910225e+00 -2.575873708784231386e+00
2.145274768684594324e+00 1.001568053346481024e+00 -2.657803868679310177e+00
2.146398221932615424e+00 9.982491096567464028e-01 -2.632136256208649883e+00
2.146150061386540298e+00 9.916128281102327691e-01 -2.579338732412465252e+00
2.140689848637481685e+00 9.917984451103581955e-01 -2.526939688657001692e+00
2.133292183394843722e+00 9.959306323447626452e-01 -2.457669179374188939e+00
2.133405489362805607e+00 9.939367632222860793e-01 -2.471574226464269053e+00
2.135301681941526475e+00 9.878630915050067296e-01 -2.517618108189623616e+00
2.140748526151488917e+00 9.758500551685004298e-01 -2.618650227410769027e+00
2.134244752666431655e+00 9.692276613929178275e-01 -2.603257896059273602e+00
2.122510389486889526e+00 9.620618384146122359e-01 -2.600114160350325498e+00
2.115979156745923628e+00 9.589369824371311024e-01 -2.582335703244069691e+00
2.119997432371991231e+00 9.497967798855857513e-01 -2.658537830937297120e+00
2.126987119098384671e+00 9.391891492135542308e-01 -2.755780875925987417e+00
2.120640711140731938e+00 9.285275364597587178e-01 -2.703962950436769042e+00
2.086904819099666408e+00 9.126801258342467360e-01 -2.699993365341240459e+00
2.081058067125469258e+00 9.099227112509561399e-01 -2.698894463111305431e+00
2.064469488307630218e+00 9.046302989700594210e-01 -2.666772716589782988e+00
2.056354570715730468e+00 9.100691167761328915e-01 -2.599581280280620632e+00
2.048154846486899050e+00 9.179086295684478758e-01 -2.514160356641851113e+00
2.054236870844777574e+00 9.040508984214088439e-01 -2.630441442933630913e+00
2.060578995036018490e+00 8.882045696477798291e-01 -2.761329651637085547e+00
2.047907268602890074e+00 8.845731214865775183e-01 -2.736298914076161992e+00
2.042559464733754382e+00 8.896037220641794807e-01 -2.683399483983709199e+00
2.040271069866940401e+00 8.885881893504672391e-01 -2.682181063850417768e+00
2.035067804644263845e+00 8.921353405360470390e-01 -2.638538541335623488e+00
2.026215063656276794e+00 9.002741224819067467e-01 -2.549359833357815575e+00
2.019290076546478740e+00 9.054151995123426167e-01 -2.485738886398764613e+00
2.018081628118096216e+00 9.052020114919714366e-01 -2.480463180422472824e+00
2.016683057390580736e+00 9.041108104115784805e-01 -2.481598191615162818e+00
2.015008992069766691e+00 9.040912674375543023e-01 -2.472437280163434004e+00
2.014074515251834008e+00 9.033973694867516446e-01 -2.471733620112424035e+00
2.010463312715185413e+00 9.005252603152109625e-01 -2.473032245776434213e+00
2.010347893624272242e+00 8.985508174042768914e-01 -2.485213488224772505e+00
2.011345219020004293e+00 8.910014739915058657e-01 -2.537039516237561632e+00
1.996860918778000427e+00 9.018391795919274978e-01 -2.401705288762106427e+00
2.000089575790011676e+00 8.946253951439734342e-01 -2.460811203349934306e+00
2.003423264999498521e+00 8.872469480899438654e-01 -2.521815294416847486e+00
2.005195048588806817e+00 8.788026484707127661e-01 -2.583641393055224000e+00
1.998219377209794700e+00 8.830123860539440539e-01 -2.526167635798111988e+00
2.000192580151133992e+00 8.777708809230659881e-01 -2.568940009066036811e+00
2.000071223961287892e+00 8.753405819533168764e-01 -2.584858618074366898e+00
1.999780219454265318e+00 8.751288785802867620e-01 -2.584884735834038327e+00
1.995962557943562699e+00 8.750909819654706379e-01 -2.568484255891263945e+00
1.982991296271927606e+00 8.827270186004277930e-01 -2.462478637803185322e+00
1.969424541340706325e+00 8.915812620203237282e-01 -2.342129707588188392e+00
1.963587263540046868e+00 8.823652197384843632e-01 -2.360554016725628479e+00
1.967299269116541627e+00 8.753501813694922751e-01 -2.419706699151578544e+00
1.968809796338844675e+00 8.716555997105033260e-01 -2.449346739200019663e+00
1.970779951752987369e+00 8.630453107647345634e-01 -2.511121065361221927e+00
1.975528614512110925e+00 8.520456030496535993e-01 -2.601633222363747944e+00
1.962126731119767875e+00 8.439641821605743388e-01 -2.600845834518856758e+00
1.946802287396820708e+00 8.514167926555894494e-01 -2.489439069027520546e+00
1.941640243490770024e+00 8.533147712661030004e-01 -2.453050408407605687e+00
1.930659956836925151e+00 8.607918112146035750e-01 -2.353933340899568183e+00
1.924823330396639776e+00 8.569615480722287959e-01 -2.342285813621630464e+00
1.906041877209115887e+00 8.363799542872263348e-01 -2.349902470031492996e+00
1.911736527743914449e+00 8.250164020489012540e-01 -2.443012570352474100e+00
1.910227157137075027e+00 8.215234998981009173e-01 -2.456058219593687308e+00
1.909111389656511282e+00 8.198797638643509078e-01 -2.460321846983242189e+00
1.907722933244086150e+00 8.187268413177787307e-01 -2.460460173127814620e+00
1.899594557849877186e+00 8.228648624648473575e-01 -2.395201389335864572e+00
1.892703624285783981e+00 8.245451124623746075e-01 -2.349382136688813461e+00
1.895636851918550914e+00 8.166995043247948782e-01 -2.408331516316760013e+00
1.900646569684396381e+00 8.077255571830668224e-01 -2.485366807072249884e+00
1.899043300109900301e+00 8.059037712817769261e-01 -2.488655479474721322e+00
1.883324046593447543e+00 8.100549014821115668e-01 -2.388524658610027718e+00
1.871740408850500526e+00 8.148475060553366234e-01 -2.299736114566090617e+00
1.867258256557936758e+00 8.174095155471391427e-01 -2.261180476065655309e+00
1.851030066173010358e+00 7.949063384245729225e-01 -2.277556311749397100e+00
1.850497478378046567e+00 7.922847280652969282e-01 -2.287301611286567837e+00
1.846237866513218195e+00 7.871556876041796436e-01 -2.288481899183723023e+00
1.842788208029422226e+00 7.894269224700370957e-01 -2.257814018332779060e+00
1.847977406346271279e+00 7.806908390983253732e-01 -2.329958806098221480e+00
1.848354508464655321e+00 7.745604783879314059e-01 -2.364112844542304526e+00
1.852993388136090269e+00 7.602731227749882637e-01 -2.469123166603750086e+00
1.855988470532788037e+00 7.558324551188964069e-01 -2.427197770456905435e+00
1.854255889012851544e+00 7.535907562988729547e-01 -2.355869383193164079e+00
1.857077835892890993e+00 7.463612314227577871e-01 -2.411152250055790702e+00
1.863150139554183182e+00 7.360833199804465155e-01 -2.503179631795945159e+00
1.861815985937997908e+00 7.349255835867666287e-01 -2.503716693690500872e+00
1.862075441631595218e+00 7.329102490579150198e-01 -2.520540577667527593e+00
1.860244718341805825e+00 7.346303270373601979e-01 -2.500388879586616042e+00
1.848026188025523986e+00 7.449304116670241172e-01 -2.373871189072711552e+00
1.847933541804025692e+00 7.444150294145860380e-01 -2.348256076430265349e+00
1.847197215549568394e+00 7.431275186434979085e-01 -2.351524931629358939e+00
1.844380062302335421e+00 7.458963396441015137e-01 -2.457830607999924144e+00
1.839312241568900275e+00 7.494171245805542059e-01 -2.414956253019876264e+00
1.828926408841933027e+00 7.421173237467165729e-01 -2.305085411933591732e+00
1.818781745469630229e+00 7.445665415333468928e-01 -2.374288195804569401e+00
1.813485373710645332e+00 7.462445361078630102e-01 -2.411558931096936309e+00
1.793552560096296711e+00 7.302319051933316985e-01 -2.421399697517435889e+00
1.791445955135823720e+00 7.308259298562738149e-01 -2.407186560239067408e+00
1.790962131013038139e+00 7.304088195150709728e-01 -2.407090550201105739e+00
1.784054674505469285e+00 7.403965557326528391e-01 -2.315926110759974677e+00
1.769594742343521432e+00 7.338593219995028782e-01 -2.357397798051797722e+00
1.766059317482821633e+00 7.302908416590810914e-01 -2.357695739752127650e+00
1.764918553068674623e+00 7.295098910496142786e-01 -2.355333525907786552e+00
1.761247134401938252e+00 7.331722818570494127e-01 -2.315852419128640260e+00
1.744877960972433639e+00 7.184632486922549743e-01 -2.330023571585830844e+00
1.729186048212650872e+00 7.030600587306110594e-01 -2.337068217282638916e+00
1.726865269313908602e+00 7.006689228288970339e-01 -2.338112515230617028e+00
1.718348776992157489e+00 6.944858904984981818e-01 -2.368966672391356276e+00
1.715572976417162998e+00 6.903702624621063100e-01 -2.377682337941821267e+00
1.707293086786279890e+00 6.959427939662238272e-01 -2.301554483204225399e+00
1.700510212350796246e+00 6.994134546691640475e-01 -2.244395754962310363e+00
1.682713351603305041e+00 6.792926633023831373e-01 -2.253865027483608507e+00
1.676881944928348744e+00 6.807748016480139608e-01 -2.211173058724610119e+00
1.672400107903446287e+00 6.824109421205897252e-01 -2.175524856951330577e+00
1.660412821209121814e+00 6.643968828344862798e-01 -2.196132481013993054e+00
1.665846678437784112e+00 6.483366951806125433e-01 -2.304877101598769240e+00
1.672427808085005019e+00 6.367331861766316603e-01 -2.403641977216104397e+00
1.676767155230307171e+00 6.274630263961047394e-01 -2.479680947911429900e+00
1.665809315706487048e+00 6.310548252841426953e-01 -2.404015542463654675e+00
1.666688469684131091e+00 6.274129736438702754e-01 -2.430264373283286705e+00
1.656627415335834241e+00 6.163088855961296186e-01 -2.445721497847875625e+00
1.646353940335897992e+00 6.190345589954043826e-01 -2.377571331831549450e+00
1.652187525093892217e+00 6.066291367351236419e-01 -2.478769497309722514e+00
1.652691619192470318e+00 5.970488652614474034e-01 -2.540019672505815063e+00
1.638038376605611246e+00 5.867873625662820558e-01 -2.540779439136324758e+00
1.624830236285732976e+00 5.864918669262246809e-01 -2.484432453987417411e+00
1.611031849246603365e+00 5.954654878123464279e-01 -2.363511448095377165e+00
1.605241551347124540e+00 5.991444216298574821e-01 -2.312236330641068704e+00
1.600816987930181678e+00 5.921725247864074726e-01 -2.323774355545165982e+00
1.599682246734595470e+00 5.921742185463982899e-01 -2.317367886903018537e+00
1.595438293738061564e+00 5.933255331104274610e-01 -2.287742985590195843e+00
