4.499803817977202414e+00 1.500000758071039053e+00 -3.141546787637860216e+00
4.506210465137961307e+00 1.483796167026132595e+00 3.018320287877113373e+00
4.449749585036459010e+00 1.476509536388179500e+00 2.873616663892847534e+00
4.432791108802936364e+00 1.476646668086472935e+00 2.838126292045772825e+00
4.404525647926960552e+00 1.466261910454383033e+00 2.683167922194138910e+00
4.381777865928902393e+00 1.455454700124778622e+00 2.522767597284834018e+00
4.369362698297448944e+00 1.450696785017278501e+00 2.435127258127168570e+00
4.355570242795775648e+00 1.462163428658528108e+00 2.434292688963204832e+00
4.342967599188720662e+00 1.482806189245659212e+00 2.493527610327871180e+00
4.342438506304573842e+00 1.503176509010046624e+00 2.621797471540368463e+00
4.330073709926997694e+00 1.517857969822599573e+00 2.676333321622341721e+00
4.261240831526389883e+00 1.561859444348306480e+00 2.617900824500716706e+00
4.251040422517307960e+00 1.568227202484718585e+00 2.614146036266874695e+00
4.228810111833368524e+00 1.580908751569352511e+00 2.615706848393251072e+00
4.207076156159389235e+00 1.593510327932330384e+00 2.615815153116141989e+00
4.171229361783999501e+00 1.614067467968026692e+00 2.617654468591426919e+00
4.144683681377824058e+00 1.629390768622674956e+00 2.618344185668234569e+00
4.120827545474440967e+00 1.639258639879743518e+00 2.713151530535030886e+00
4.120617068533280580e+00 1.660843739834275246e+00 2.868146882840711065e+00
4.111160578791623443e+00 1.679229861828700487e+00 2.990858530324515208e+00
4.101846994349390485e+00 1.690916112048791664e+00 3.071513218935891132e+00
4.117823795349611515e+00 1.690230020016779466e+00 3.074609393462792273e+00
4.140759832986973699e+00 1.688690628725922238e+00 3.075701957588024005e+00
4.137373858066168530e+00 1.697821149693359954e+00 -3.136702059384661734e+00
4.131148536284098505e+00 1.716188252494629918e+00 -2.991595097906718959e+00
4.094011523618262594e+00 1.710860131974200504e+00 -2.986441235766331914e+00
4.074653720481679287e+00 1.707831394763535293e+00 -2.984353746531023699e+00
4.075765269588248252e+00 1.700731533214212998e+00 -3.041960432132654990e+00
4.045080172686849274e+00 1.712755848879655485e+00 -2.900338597172337884e+00
3.994244943820832283e+00 1.699787050548891454e+00 -2.906712420336610148e+00
3.961436692200257514e+00 1.691917962906809292e+00 -2.907411826024414836e+00
3.949059372940553203e+00 1.678957943104912420e+00 -2.984360543399990462e+00
3.926429377464171200e+00 1.673414206904767276e+00 -3.008774466953594739e+00
3.883806746923253339e+00 1.681336019773268964e+00 -2.883075128306105128e+00
3.844830540854143219e+00 1.666099778214861438e+00 -2.929456368216728723e+00
3.799181931597372053e+00 1.644847434074728554e+00 -3.054668319935315068e+00
3.761010478846719352e+00 1.644965414366448275e+00 -3.021702888527346254e+00
3.746398745765398886e+00 1.659229017718149235e+00 -2.876092788784994969e+00
3.735502719375042524e+00 1.674992183089803577e+00 -2.733916822411698977e+00
3.722235383639150630e+00 1.686730118547719925e+00 -2.607073813528968387e+00
3.689884322942864614e+00 1.668190117723480803e+00 -2.600072346697108738e+00
3.670805020303151700e+00 1.656828771925566768e+00 -2.599232477754821691e+00
3.640988707912143685e+00 1.638887048230876831e+00 -2.598282888167834148e+00
3.623555550091321464e+00 1.636030041336165253e+00 -2.646855889640890691e+00
3.602340014728459217e+00 1.633550490029825886e+00 -2.703459196244407003e+00
3.592990732284667477e+00 1.647717903757490721e+00 -2.831389865579921672e+00
3.580752857575375980e+00 1.634991715909906995e+00 -2.769174945656985187e+00
3.554693936365627138e+00 1.614122212222310226e+00 -2.705518491817294979e+00
3.444154300856249407e+00 1.564565243269501638e+00 -2.685471975412537571e+00
3.417657439658350338e+00 1.544131865314931629e+00 -2.744550226016444494e+00
3.375321966209468449e+00 1.531253197233207075e+00 -2.702680685340293376e+00
3.335802589739705670e+00 1.512801062217776105e+00 -2.702340529694133409e+00
3.271094176105399320e+00 1.489439503962626254e+00 -2.746649469085202355e+00
3.224928824392875093e+00 1.489650235520792343e+00 -2.863981809024619629e+00
3.221304022425546254e+00 1.483835554991853600e+00 -2.826987144886012882e+00
3.216170931612994277e+00 1.476097950699124084e+00 -2.725001057646307068e+00
3.194130292886312894e+00 1.475300751138509225e+00 -2.637979010761971832e+00
3.170585897142834675e+00 1.462776563576319244e+00 -2.632691394777072702e+00
3.098820404962609132e+00 1.423538072167235047e+00 -2.622984845598053116e+00
2.995460264428793984e+00 1.366420345061132524e+00 -2.637066167229521696e+00
2.994388495007131112e+00 1.354833207392576622e+00 -2.563368867763609060e+00
2.981335774797916116e+00 1.325106962790141507e+00 -2.440131013525745907e+00
2.973716058466209677e+00 1.291398067436615671e+00 -2.296063660785154781e+00
2.911460617731690625e+00 1.213924426735585982e+00 -2.273025183582189968e+00
2.862149640935892414e+00 1.168465919914481344e+00 -2.191873069531459439e+00
2.783126321711415496e+00 1.074399084021723905e+00 -2.049749627699728904e+00
2.759463183569554445e+00 1.059060114864035285e+00 -1.933524136671658011e+00
2.734319505389598781e+00 1.002288427531656367e+00 -1.896349514039359585e+00
2.722461012922097190e+00 9.346607154563590925e-01 -1.826094902951580501e+00
2.735032391995820156e+00 9.273520558412440273e-01 -1.718117968978288612e+00
2.730098725430088358e+00 8.678038609377162205e-01 -1.596571974879634093e+00
2.712336034049939837e+00 8.512683248801536928e-01 -1.455751808170524519e+00
2.707756184459672255e+00 8.454552400182075989e-01 -1.414933956555890715e+00
2.719779697584307598e+00 7.906023760260378896e-01 -1.338997532555663561e+00
2.744523601200374863e+00 7.775503298220832749e-01 -1.186192921823853386e+00
2.773987745847644959e+00 7.644864617404956153e-01 -1.028563181266836768e+00
2.784396366448037341e+00 7.483311433706746341e-01 -8.526813017331379418e-01
2.860804647131796052e+00 6.640788565075628203e-01 -7.085031083152782960e-01
2.915847481552944931e+00 6.177942218377197037e-01 -7.049893996593918910e-01
2.972747273882239583e+00 5.693366856605197590e-01 -7.044425372254292661e-01
3.009010457265618221e+00 5.170110560170797509e-01 -5.551362751871780077e-01
3.024712475899907549e+00 4.851149797183071377e-01 -3.925478316836901738e-01
3.052811176154881956e+00 4.552615332575419838e-01 -2.406920380828126427e-01
3.089300510746046058e+00 4.356639507419136081e-01 -1.467062864007860068e-01
3.135872067268217211e+00 4.280899744930837802e-01 -1.387189988671475305e-01
3.185607891610614750e+00 4.171634939079436610e-01 -1.076987735824287973e-01
3.304678252954548867e+00 4.078465525219344689e-01 2.550386348307660117e-02
3.343633821086645419e+00 3.898728318003746307e-01 1.913251122574297636e-01
3.402050307103785531e+00 3.829270505565159355e-01 3.658424732109102906e-01
3.559855623659195611e+00 4.560808810403934044e-01 4.625724510114133103e-01
3.699750534033045213e+00 5.230757585610216198e-01 5.991388344821036993e-01
3.810971635114065226e+00 5.846492784702777001e-01 7.743463870227211832e-01
3.886212063827483298e+00 6.414601511202144835e-01 9.269576698676263993e-01
3.916486960688758678e+00 7.184217453202825787e-01 1.061005360424676303e+00
3.935030106879031209e+00 7.520057057553684032e-01 1.220172698923919885e+00
3.960119316897589670e+00 7.508772898152408226e-01 1.407421978762186665e+00
3.983160088634721596e+00 7.532149412232842511e-01 1.582226614959048261e+00
3.991502119860394160e+00 7.432892831847590642e-01 1.641034170537181147e+00
3.980731792037095929e+00 7.446716523428441592e-01 1.720710213390867382e+00
3.972045371843865080e+00 7.715046184514918748e-01 1.894376850560364201e+00
3.992339306631574214e+00 7.836284360437721919e-01 2.074221344294159053e+00
4.010809368337906022e+00 8.011957959307719479e-01 2.266520954816644284e+00
4.026264247979512767e+00 8.206137174927468081e-01 2.455282456451282957e+00
4.022432276281818098e+00 8.399560931738407898e-01 2.573442758652421336e+00
4.008596424797705282e+00 8.225356985774489038e-01 2.741737075173602989e+00
3.999634498271963601e+00 8.013014710304389165e-01 2.917970772883916375e+00
3.993005920168604117e+00 7.797393492946899096e-01 3.089064419840903852e+00
3.965648792827181079e+00 7.694266570752864576e-01 -3.040305740932339518e+00
3.957270294812237577e+00 7.872091522633752891e-01 -2.894818277412019025e+00
3.941658456009135225e+00 7.834154157119762596e-01 -2.893987303811999201e+00
3.920236846120672691e+00 7.650908390319433039e-01 -2.996315210442691779e+00
3.903642034227232216e+00 7.445461769319774437e-01 3.139089447651526310e+00
3.851787495125414296e+00 7.354510345590686837e-01 3.049670986493206559e+00
3.841951161727390041e+00 7.492856271807771806e-01 -3.130788297362887551e+00
3.820954240063208829e+00 7.596189292576828178e-01 -3.037001494692307180e+00
3.788912278874776440e+00 7.447814313524778740e-01 -2.957987516026092667e+00
3.707119354249754029e+00 7.290802809699362674e-01 -2.959773822650998198e+00
3.597305536089792977e+00 7.075460921982285045e-01 -2.979078149619625027e+00
3.555533713521707107e+00 7.000417696966719783e-01 -2.986417586675760294e+00
3.486569064474932311e+00 7.066393636815651025e-01 -3.094644049932391283e+00
3.456281288388676654e+00 7.094380522292399460e-01 -3.124465840061578348e+00
3.444335681124092829e+00 7.052270556793193146e-01 -3.091130248565251204e+00
3.437442291714963627e+00 7.191620404523207943e-01 -2.929064520499351509e+00
3.420405612570374121e+00 7.355541643711063227e-01 -2.770871452628169251e+00
3.352040793119950735e+00 7.176448317638537411e-01 -2.685156432593326148e+00
3.282448404455819535e+00 6.861429412743044187e-01 -2.654258962872205974e+00
3.269522839115860613e+00 6.793548143038319331e-01 -2.656119177644061580e+00
3.245905506403692797e+00 6.644056653785815891e-01 -2.639226656016005812e+00
3.199760656769992551e+00 6.388662843856135476e-01 -2.638429018729010256e+00
3.130647222956236764e+00 5.955621459539843787e-01 -2.614002011316431062e+00
3.086879613023644886e+00 5.741608476011885731e-01 -2.582521389472383078e+00
3.044364105610540161e+00 5.609170139109098674e-01 -2.477919475888794576e+00
2.987380846691925385e+00 5.125605191369185798e-01 -2.376802180533406084e+00
2.896469142507297256e+00 4.247849950821339648e-01 -2.376089796107176966e+00
2.870126340996439041e+00 4.159298411063152567e-01 -2.277201439515848858e+00
2.839401258204607092e+00 3.718985194304148534e-01 -2.195793391755218593e+00
2.777916091480221894e+00 2.738398748069707511e-01 -2.124105894052266574e+00
2.753454377284578758e+00 2.705779371625836038e-01 -1.971749499620953028e+00
2.711294362150976411e+00 2.151485148064240238e-01 -1.793855011579670977e+00
2.701852956056927102e+00 1.601055268079312199e-01 -1.711655254564959927e+00
2.686496426373519153e+00 1.478336270515047124e-01 -1.555338307996500413e+00
2.672952452873537776e+00 1.068719518589580364e-01 -1.425845976706486162e+00
2.654234355388382038e+00 8.829932893201511424e-02 -1.254835367283502867e+00
2.634249927074768127e+00 7.447924892714895273e-02 -1.072797121595928216e+00
2.651015289106367412e+00 1.001649923344857286e-02 -9.072842476286775426e-01
2.641904942630885600e+00 -1.182619023058633853e-02 -7.424676301268702261e-01
2.679453075536757378e+00 -7.017194256912148709e-02 -5.630643699748474340e-01
2.696836578708091015e+00 -1.055120495853860696e-01 -3.836572998608264728e-01
2.695694957929813285e+00 -1.277168196961441793e-01 -2.196107164669468814e-01
2.760970679789862547e+00 -1.591711343894805231e-01 -4.966607677719313274e-02
