4.500007607243198038e+00 1.499997643007838555e+00 3.141590001813268973e+00
4.510650191876095505e+00 1.501266473622240305e+00 -3.131468171900480435e+00
4.493956329714984932e+00 1.504820153085321355e+00 -3.100368419488805927e+00
4.467598803242234240e+00 1.507795058116080611e+00 -3.065041550302895157e+00
4.436634319792811532e+00 1.505586750333697710e+00 -3.062043037213336483e+00
4.428191667658638586e+00 1.506723175242772772e+00 -3.046633757245055474e+00
4.372794160001608255e+00 1.501475238947947988e+00 -3.045309957516344923e+00
4.321488484642449279e+00 1.500007461585523449e+00 -3.068359023624021464e+00
4.299669356472382908e+00 1.501547202588209950e+00 -3.094190125997359431e+00
4.283078805400472255e+00 1.498121525418525612e+00 -3.076461912815967814e+00
4.280163246932564114e+00 1.499553798935161497e+00 -3.013898416360316190e+00
4.264694843455128392e+00 1.498282859896955976e+00 -3.007192469349052821e+00
4.251392131761214443e+00 1.493861432256821997e+00 -3.028877258030774566e+00
4.224585452391079521e+00 1.485355886668981551e+00 -3.075843215616374859e+00
4.213598950952307298e+00 1.491243108953877128e+00 -3.022525013586412346e+00
4.193475376899997720e+00 1.492537665329184415e+00 -2.991297310092883244e+00
4.122370470411903298e+00 1.481839423905640940e+00 -2.990518609404983152e+00
4.073785701952060911e+00 1.474481347615953952e+00 -2.991303400498380505e+00
4.054013873178723415e+00 1.478835248071521891e+00 -3.044052275606797586e+00
4.039108193419452597e+00 1.477579992123596808e+00 -3.045270717680993222e+00
4.031946610899273864e+00 1.474231928370497657e+00 -3.025074298684616192e+00
3.976303221342059047e+00 1.465603611487222402e+00 -2.999396193940663480e+00
3.961557471059492741e+00 1.471963664835420404e+00 -2.930895230742745827e+00
3.932121594814318666e+00 1.465972956187733711e+00 -2.927879240815543849e+00
3.896975499320688208e+00 1.451892296819006889e+00 -2.985065220441876388e+00
3.879400480824779951e+00 1.448878084489510831e+00 -2.987123645952413309e+00
3.821790583360828109e+00 1.443818563684896361e+00 -2.947810337771624489e+00
3.792420250982126984e+00 1.440247218718358591e+00 -2.924901022030086395e+00
3.782181594860403617e+00 1.432664727169655983e+00 -2.858826999908159472e+00
3.754490858210079995e+00 1.416465013526087446e+00 -2.804745382122824537e+00
3.680917443427275781e+00 1.389622696590869566e+00 -2.810560176783508002e+00
3.646261019785722812e+00 1.373732222597916941e+00 -2.844387818895459219e+00
3.600598865301294804e+00 1.352464836921329461e+00 -2.911619979385116963e+00
3.555949549377895202e+00 1.341994734467942152e+00 -2.912242071478963190e+00
3.509495934830956898e+00 1.335300111692662162e+00 -2.859343866548806457e+00
3.498414068763577855e+00 1.320931600225785818e+00 -2.768239555092765869e+00
3.476717243074560315e+00 1.311705015293821441e+00 -2.762905510778449703e+00
3.380387294599511705e+00 1.263729443270385167e+00 -2.882027666960313539e+00
3.337676840918372800e+00 1.245056670879399974e+00 -2.949104848179878946e+00
3.306650364640387085e+00 1.253010651901247607e+00 -2.830625254350318087e+00
3.235949729338547520e+00 1.242297192032163711e+00 -2.684769649369426414e+00
3.229814426864340504e+00 1.239114351071874509e+00 -2.678171511664866777e+00
3.167946845390719801e+00 1.207096029049278485e+00 -2.686877708105204210e+00
3.133964611682755752e+00 1.180872233555812834e+00 -2.763098829109426280e+00
3.107957693264046029e+00 1.160230602691414425e+00 -2.846624521638942529e+00
3.031552469193464550e+00 1.135813150778133274e+00 -2.857593622708583414e+00
2.999454829579742743e+00 1.139980071619852264e+00 -2.744948711828399723e+00
2.975661528996383254e+00 1.149138158449072744e+00 -2.599638869879907777e+00
2.944411777084877446e+00 1.130852281930421865e+00 -2.594246931258193278e+00
2.914242920095314826e+00 1.128162305650402208e+00 -2.689539787597376996e+00
2.860232436222907459e+00 1.118858237234828135e+00 -2.785613578959549752e+00
2.822251395191633261e+00 1.094445269975973911e+00 -2.721667669527835454e+00
2.780331711342510559e+00 1.081208554019477575e+00 -2.581364832446920943e+00
2.772564010080967645e+00 1.076762983321299716e+00 -2.578110936268844799e+00
2.729894954092241921e+00 1.049514336187398644e+00 -2.581699549986578024e+00
2.674036334572478690e+00 1.020364065902692685e+00 -2.615852498343346877e+00
2.625486208261317067e+00 9.925904130697371652e-01 -2.619863244348483278e+00
2.604109096262895662e+00 9.783413916208301142e-01 -2.607005292733830082e+00
2.590027585462371551e+00 9.564515739101729919e-01 -2.520183488578843445e+00
2.566506190781889796e+00 9.402145295607420294e-01 -2.480567974309050960e+00
2.516857409270462309e+00 9.011531351386004030e-01 -2.485510152195381739e+00
2.474644440229460507e+00 8.686295344650756256e-01 -2.486096556565204452e+00
2.424029004031310830e+00 8.299538888331536857e-01 -2.488182308370948448e+00
2.384704784465131233e+00 8.016287433510512761e-01 -2.497325538903079067e+00
2.361588000090332429e+00 7.772533692539060901e-01 -2.457812531858989402e+00
2.321626741722905507e+00 7.340679905045430775e-01 -2.537551616606676497e+00
2.224796528094370895e+00 6.700609828335974960e-01 -2.509512380161690093e+00
2.182946386058012056e+00 6.471632791642025762e-01 -2.438690443184992507e+00
2.162492788140662814e+00 6.104096098469388165e-01 -2.323729313083761294e+00
2.152267385683650947e+00 5.950347967347940914e-01 -2.301574569164577255e+00
2.124125637055783056e+00 5.604362963922698837e-01 -2.322367565291927782e+00
2.079545753651897755e+00 5.072339153481337792e-01 -2.362335988369144157e+00
2.058122779540326075e+00 4.858084998984684710e-01 -2.365201524407804623e+00
2.014392185530443413e+00 4.429688643439279039e-01 -2.365647359236401570e+00
1.942903285314397932e+00 3.714458379259561460e-01 -2.357938507808580830e+00
1.929543262161751649e+00 3.574680399590346447e-01 -2.363040515547799814e+00
1.915830664092224467e+00 3.442285258184560881e-01 -2.360459777212281285e+00
1.840679142109021393e+00 2.690762202532890335e-01 -2.376944951173708187e+00
1.793739095099490699e+00 2.240371850225747197e-01 -2.375947464789151198e+00
1.782386420309554076e+00 2.037961482147473691e-01 -2.300554182806918924e+00
1.756952643620108168e+00 1.745510890123637693e-01 -2.297553112691146371e+00
1.691973741485553795e+00 1.016685336730898115e-01 -2.293714709158415133e+00
1.637378763555471517e+00 4.029590615479254623e-02 -2.289003566895936537e+00
1.590309962946681255e+00 -1.354462928135386976e-02 -2.288636569311898850e+00
1.504072794683908088e+00 -1.122071848887773726e-01 -2.289564483414894269e+00
1.469998249937245260e+00 -1.536648268928161032e-01 -2.306660351596041547e+00
1.374799157370211633e+00 -2.589204130866568088e-01 -2.306149244943243470e+00
1.283537391066432054e+00 -3.586340715741766494e-01 -2.351630854868393516e+00
1.172054757437169359e+00 -4.703768989768836728e-01 -2.332394004581100688e+00
1.044239453274663720e+00 -6.053935072390677075e-01 -2.327713632905269225e+00
9.396335254333063602e-01 -7.156098560173808076e-01 -2.306517135445924627e+00
8.521823954504147425e-01 -8.193252519857870952e-01 -2.234890541522527752e+00
7.481259898379296613e-01 -9.662284170006272266e-01 -2.092223657010909399e+00
6.474901089388707121e-01 -1.132999860120670110e+00 -1.929250375111235094e+00
5.864804709832562857e-01 -1.304610846953901282e+00 -1.880809511414029966e+00
5.375793837920366247e-01 -1.484816468520722355e+00 -1.799611923861259788e+00
4.918038731592719870e-01 -1.680691157160279170e+00 -1.748707821785717265e+00
4.648781643187420709e-01 -1.870148176711229127e+00 -1.661783937486312812e+00
4.550816014013028266e-01 -2.071810394980235337e+00 -1.544508623925780366e+00
4.622681316293193454e-01 -2.262392006649399878e+00 -1.474400545042920285e+00
4.793201740798851418e-01 -2.452939392687766063e+00 -1.509703167373173560e+00
4.980514895922978358e-01 -2.650635891150369350e+00 -1.437921940160317824e+00
5.216386525531306884e-01 -2.721001442507190671e+00 -1.570794348940727669e+00
5.216402131632099648e-01 -2.721000917838420463e+00 -1.570791812212223082e+00
5.216375642302510940e-01 -2.721001432420278920e+00 -1.570792381951915395e+00
