4.499691847526444910e+00 1.499996654588283684e+00 3.141563323366842742e+00
4.479396962509779812e+00 1.504998716889299759e+00 -3.100385838745296052e+00
4.472936334815888593e+00 1.504578913976699406e+00 -3.102294415476760658e+00
4.400704081389552158e+00 1.501775447782913275e+00 -3.102860131128496679e+00
4.372384990891105438e+00 1.505602943026000728e+00 -3.060043167181326851e+00
4.349310926438324287e+00 1.501494252408743346e+00 -3.037467399987381800e+00
4.308642508050247066e+00 1.494855264613832002e+00 -3.021114095097676255e+00
4.222310132576125419e+00 1.483556482257852194e+00 -3.031002213709064197e+00
4.192089351785277529e+00 1.476181875293128831e+00 -3.065377134458786124e+00
4.133927266556723268e+00 1.471647382653804792e+00 -3.066558112264470282e+00
4.068599840800922074e+00 1.473592787594025122e+00 -2.996132437256846970e+00
4.004188139615330932e+00 1.449403057737356226e+00 -2.904472511440740146e+00
3.892079142049369445e+00 1.422300813504471684e+00 -2.889256696160811710e+00
3.838839926262394897e+00 1.410177284834582379e+00 -2.961543720971091975e+00
3.791277374729543848e+00 1.406117705521707562e+00 -2.990223309979846533e+00
3.772602668863760833e+00 1.401877358656666406e+00 -2.918207034351535611e+00
3.739442264574712738e+00 1.376152100946110401e+00 -2.799657710854752679e+00
3.710723586805996010e+00 1.361536822394026069e+00 -2.710744169035296913e+00
3.639987350801430210e+00 1.319981460686644237e+00 -2.801419823132566655e+00
3.512901860939361853e+00 1.283095149905911558e+00 -2.901836943017492843e+00
3.467959697264792140e+00 1.277638194364994151e+00 -2.937966093910904242e+00
3.459577628238384328e+00 1.260626046896196728e+00 -2.826827832894287518e+00
3.453121312038502477e+00 1.239778270321103770e+00 -2.676637556887582647e+00
3.431930831298464657e+00 1.229296241928728550e+00 -2.674666608575953397e+00
3.375705006933356067e+00 1.186341761713358922e+00 -2.810659175559475642e+00
3.308666153584201020e+00 1.151212156133336606e+00 -2.959860563714667325e+00
3.273740876114734188e+00 1.146856486939492825e+00 -2.942955757683791695e+00
3.226589362329843613e+00 1.139034375547795630e+00 -2.919915629860945661e+00
3.175405714206043228e+00 1.104946446682765426e+00 -2.774444661533752576e+00
3.149231026959419921e+00 1.114474282536948246e+00 -2.623706333187474371e+00
3.115360211506245314e+00 1.099598743776498910e+00 -2.588280449719408960e+00
3.081640344736284121e+00 1.067109677221368846e+00 -2.681281936616000561e+00
3.004909993922005196e+00 1.029990331926172953e+00 -2.796649416635371033e+00
2.947733311728013117e+00 1.022114067467647436e+00 -2.872432600315430129e+00
2.910010776362931928e+00 1.005063997356681949e+00 -2.829055831437512936e+00
2.861627574067746149e+00 9.890583545305566826e-01 -2.824933662309058846e+00
2.818873996879665444e+00 9.788768700949650459e-01 -2.792932297489552962e+00
2.784380482115656807e+00 9.831621478410093040e-01 -2.655903137380131618e+00
2.728402705468787826e+00 9.678959558184038192e-01 -2.531194561634162898e+00
2.699491997882773830e+00 9.510662931319312507e-01 -2.549097284920466056e+00
2.630247871521306458e+00 9.075961125495017878e-01 -2.575627177635591458e+00
2.568381691932274613e+00 8.613715450541247209e-01 -2.637833684546884161e+00
2.506186300730471661e+00 8.327815155210569475e-01 -2.590593648947401739e+00
2.469461344979793527e+00 8.250896434134726842e-01 -2.479609246471057737e+00
2.435887027540520666e+00 7.926812308989498179e-01 -2.384814590003396795e+00
2.417742177684236271e+00 7.718766831184805666e-01 -2.365842797924043950e+00
2.382805802313851196e+00 7.360597250296561089e-01 -2.376271288552832317e+00
2.313360577134297991e+00 6.631424070034659390e-01 -2.431116798447280569e+00
2.213621876502500641e+00 5.828479728282415229e-01 -2.457821312327434615e+00
2.158881455639202862e+00 5.377253140606780279e-01 -2.470210085705802694e+00
2.067516284446810904e+00 4.679784583715738133e-01 -2.407673289460656729e+00
2.030530882187528530e+00 4.348247101362788247e-01 -2.406012793028121877e+00
1.947941449152597038e+00 3.571456071478374406e-01 -2.387521212843322971e+00
1.877659112311883316e+00 2.856139031114280913e-01 -2.439062249757219636e+00
1.800263378808419468e+00 2.209003611603882478e-01 -2.428671154524055797e+00
1.707026126438787594e+00 1.286686408195951703e-01 -2.360840238378724365e+00
1.675236220591903580e+00 1.044570875087143524e-01 -2.310726185395636456e+00
1.572972792622791660e+00 -6.649887007546956275e-03 -2.273063353650489393e+00
1.465283372201805490e+00 -1.413868271321274683e-01 -2.213773279451163312e+00
1.385682158885682913e+00 -2.498140717493762819e-01 -2.184553841109805550e+00
1.275889494777320943e+00 -4.065810277619731350e-01 -2.105788101688133018e+00
1.183445779778363072e+00 -5.779426571395973600e-01 -2.056226696412882582e+00
1.095369148872057385e+00 -7.464362414782264032e-01 -2.029104129571627446e+00
1.010063300370883432e+00 -9.206431001000606740e-01 -2.030187307052425005e+00
9.367111358074451388e-01 -1.094278680638345547e+00 -1.930517869364371863e+00
8.681123876861194244e-01 -1.281833505375429283e+00 -1.774165457814704805e+00
8.402262487769798227e-01 -1.466170859562814455e+00 -1.641545729861747294e+00
8.345805929107877885e-01 -1.664725335418326013e+00 -1.572505007280429412e+00
8.434823477358363020e-01 -1.860576862535627152e+00 -1.416022784312316762e+00
8.723339623520866004e-01 -2.061455329915475421e+00 -1.300662923037806840e+00
9.391832099318934146e-01 -2.247799603880039854e+00 -1.187201416454584990e+00
1.024028289460400254e+00 -2.422547710747994465e+00 -1.054923918985627651e+00
1.122399236468270001e+00 -2.593914918310295192e+00 -1.025268307491423947e+00
1.180133339960300010e+00 -2.647239558426344619e+00 -1.038411260583773199e+00
1.181157954854069825e+00 -2.647444547295796369e+00 -1.041755511053996219e+00
1.181272094200314760e+00 -2.647474197980228539e+00 -1.042174800883302943e+00
