4.499993186104757292e+00 1.499998356128957822e+00 3.141584152296663213e+00
4.482758816514801126e+00 1.517721747627976070e+00 -2.996405519156398967e+00
4.454525936209666526e+00 1.528764147289287001e+00 -2.868475957555143285e+00
4.400860588343131319e+00 1.514091827249107070e+00 -2.863354991100396596e+00
4.299465188593056375e+00 1.475819791704297890e+00 -2.974773486125671162e+00
4.280059582081439551e+00 1.476631563671568781e+00 -3.044583525061119289e+00
4.202805724494454331e+00 1.470957181975443007e+00 -3.020776390427459823e+00
4.190408379562846619e+00 1.483324434608471964e+00 -2.911776208338774818e+00
4.175041458572064990e+00 1.491860735695990092e+00 -2.816271325399762215e+00
4.059008467207425142e+00 1.458931894869430534e+00 -2.880983411872622746e+00
3.968366715916332055e+00 1.429076746330562253e+00 -3.031535926868223374e+00
3.858032952007927285e+00 1.413130320930812367e+00 -3.107248298069220649e+00
3.827330897738602467e+00 1.423781106481032399e+00 -3.007313755931512844e+00
3.798104525593567260e+00 1.440510852880696024e+00 -2.833544375651915193e+00
3.794695644382448663e+00 1.446836713697025045e+00 -2.690423983746396353e+00
3.766512553298632326e+00 1.432403529468658787e+00 -2.697415002389634608e+00
3.731205846795616843e+00 1.398950467217904281e+00 -2.832857603251692780e+00
3.693384254626372876e+00 1.370811532350160844e+00 -2.974250449175000810e+00
3.647776266029743919e+00 1.362796119602059708e+00 -3.027041336517552583e+00
3.621446751414912235e+00 1.376103551947696291e+00 -2.887678092333506363e+00
3.606942204440778621e+00 1.391304155614767391e+00 -2.723558620903256067e+00
3.561566782848426094e+00 1.371537409882771952e+00 -2.686913442806008856e+00
3.546851837415168962e+00 1.379532510679373214e+00 -2.787865457702620287e+00
3.461832322869909273e+00 1.364048109998019953e+00 -2.914496676936638053e+00
3.442850859798264551e+00 1.354857439721375512e+00 -2.954117593319300905e+00
3.384718745921559968e+00 1.322243110744711903e+00 -2.822523120151060994e+00
3.372363173407931125e+00 1.336223044167615059e+00 -2.678332984916677706e+00
3.353353696428432507e+00 1.333223378376377832e+00 -2.629804585454944110e+00
3.346994724408477229e+00 1.316315537934337421e+00 -2.724217266343832655e+00
3.294326166348909624e+00 1.296155709140244916e+00 -2.822456229955977669e+00
3.252906049508651698e+00 1.283002705394192589e+00 -2.826175245738658859e+00
3.209879769202759192e+00 1.280269112287278022e+00 -2.727724392554238708e+00
3.207865776261158430e+00 1.279174718492145590e+00 -2.678442563389805908e+00
3.139851646504298266e+00 1.246491674735459076e+00 -2.660961945810075502e+00
3.095839364353026202e+00 1.213982561460785314e+00 -2.741734231933158128e+00
3.063746910884141528e+00 1.197531743086699629e+00 -2.765988281104823532e+00
2.995806056535068151e+00 1.169681157126557070e+00 -2.753974674089652908e+00
2.978113706353780366e+00 1.154240265890019490e+00 -2.697698523803683468e+00
2.919608532484182284e+00 1.110681776030569168e+00 -2.611580441324166557e+00
2.882172707107806708e+00 1.088613608418338652e+00 -2.611693730211450681e+00
2.849202647766253538e+00 1.056687992508978269e+00 -2.711277709513150391e+00
2.839931345579675526e+00 1.046112034685240610e+00 -2.757741750856727680e+00
2.807007198036659545e+00 1.042884167990931310e+00 -2.675877740488464163e+00
2.782291967788075748e+00 1.049934964588353559e+00 -2.532223627555695078e+00
2.758486163690575754e+00 1.033761405779298981e+00 -2.531127963973829331e+00
2.734324911310418216e+00 1.001519580037419921e+00 -2.445206425713398080e+00
2.670966250737825565e+00 9.595069845232474526e-01 -2.496683056055440719e+00
2.612505590815137779e+00 9.131002623533782669e-01 -2.543811177554538894e+00
2.570000574627802958e+00 8.805702777902552070e-01 -2.572946940898356960e+00
2.523537966843415692e+00 8.537031830811243616e-01 -2.547942361116382060e+00
2.504741367104132976e+00 8.278113595357586840e-01 -2.463769165610666168e+00
2.482328701232670909e+00 8.019596605011738433e-01 -2.422355076413327701e+00
2.477706991728706232e+00 7.741314962751898454e-01 -2.295790678660644346e+00
2.422515676519952255e+00 7.075678119292206913e-01 -2.264531188236775350e+00
2.390218007644673737e+00 6.824603379522884428e-01 -2.185612285221356643e+00
2.328708562899695522e+00 6.105893581221935040e-01 -2.078500797416126034e+00
2.291113663067615214e+00 5.531286640665321608e-01 -2.026971898566457320e+00
2.260430618550802517e+00 5.237748935181039123e-01 -1.895497817543486230e+00
2.231292042916676266e+00 4.325627274513033083e-01 -1.751294386925817292e+00
2.247200679292524317e+00 4.041160943309641818e-01 -1.605584534998250268e+00
2.268424838180108427e+00 3.771282042909007148e-01 -1.451265614090859080e+00
2.271170724724910883e+00 3.790587406831558703e-01 -1.426975179041108266e+00
2.316634203687825355e+00 2.629050302335104172e-01 -1.265815208110999457e+00
2.349134522186106633e+00 1.779573165171726146e-01 -1.093185600127837942e+00
2.362382297979823242e+00 1.195950378679797726e-01 -9.453104070999041042e-01
2.366259718532218059e+00 9.034657939860282760e-02 -8.269933109563982754e-01
2.432189903008666665e+00 9.710352593122325779e-04 -6.735906041331629623e-01
2.587051562116723602e+00 -1.133270985072582643e-01 -5.716736209441112271e-01
2.727150039739063558e+00 -2.012214272208864008e-01 -4.015973736386764248e-01
2.844355943393434227e+00 -2.359797791396615052e-01 -2.321582354146770333e-01
2.987880503179613623e+00 -2.641918326914217130e-01 -1.042654726086388733e-01
3.055236339644580745e+00 -2.871482715785104167e-01 6.643293458757003334e-02
3.212953621052709430e+00 -2.921091120461679624e-01 1.625961723069973275e-01
3.349339990594340843e+00 -2.812487597507551396e-01 1.079692272737285685e-01
