4.500050629130652347e+00 1.499997549152386034e+00 3.141586510929551324e+00
4.493139644700928415e+00 1.505436446240158155e+00 -3.098061326986823794e+00
4.456065952102654215e+00 1.509182882966000117e+00 -3.050086708863834151e+00
4.404778169742152194e+00 1.504571156830559087e+00 -3.048675500408347894e+00
4.343844897370323643e+00 1.498836623414758984e+00 -3.048025136175552596e+00
4.304113647176249557e+00 1.495112237525568766e+00 -3.048139974717355649e+00
4.272610158422662785e+00 1.487214645954841652e+00 -3.091828648344822739e+00
4.229343959809996001e+00 1.483895244512474232e+00 -3.103798317732344270e+00
4.214347744552402020e+00 1.485477495060725017e+00 -3.085108976549161497e+00
4.195620191358836237e+00 1.484487635765500135e+00 -3.085584917927288728e+00
4.105543130907348903e+00 1.482114969244963554e+00 -3.053197390736977379e+00
4.075384626313509173e+00 1.481197767030474122e+00 -2.999953243660548274e+00
4.047707289177812306e+00 1.463709581249652780e+00 -2.907621013691592537e+00
3.997378367326441584e+00 1.442855887373243551e+00 -2.852370329813661343e+00
3.963785785947569362e+00 1.430097892826740935e+00 -2.876212549835897914e+00
3.938502425843990906e+00 1.410945986666647389e+00 -2.973768901410267507e+00
3.845488769950624164e+00 1.403230639816944070e+00 -3.034566387009931976e+00
3.815075392065117033e+00 1.405256791743514810e+00 -2.989856808865609228e+00
3.786604673706612356e+00 1.403659035258671972e+00 -2.880356662677838742e+00
3.775202370016389253e+00 1.400363662496168837e+00 -2.876559692097523602e+00
3.755352573143972972e+00 1.394975526605472860e+00 -2.876900838718161602e+00
3.723283331003218954e+00 1.385642258603105859e+00 -2.883058243065492743e+00
3.680394935572864679e+00 1.378654246954817975e+00 -2.842850353553354470e+00
3.673380187298254107e+00 1.376040740528681416e+00 -2.846427275268181845e+00
3.644861624426416924e+00 1.361886731822390173e+00 -2.892804722409143992e+00
3.628548585471934373e+00 1.358010221337510037e+00 -2.888769287403671004e+00
3.588980001256160790e+00 1.352368807980218524e+00 -2.846656333048933174e+00
3.546544119216596958e+00 1.335860108588176276e+00 -2.817810993175065892e+00
3.484515415890576229e+00 1.312680579381278578e+00 -2.801457985236834869e+00
3.422360744909275887e+00 1.293543478909765065e+00 -2.773812269718392454e+00
3.289548532471842535e+00 1.242658582179085425e+00 -2.734431126710664461e+00
3.243470562713684391e+00 1.222372203740183183e+00 -2.732154955416286057e+00
3.184900155642550246e+00 1.196675066240168617e+00 -2.730041792614027685e+00
3.155585107758977159e+00 1.177632183413818368e+00 -2.781310084647290015e+00
3.139469241210421480e+00 1.164865358970749831e+00 -2.833759280104215961e+00
3.072123664214731154e+00 1.142719166046313406e+00 -2.842053662148690929e+00
3.044451087072217454e+00 1.143155437184832923e+00 -2.767924280470218434e+00
3.002779943574141353e+00 1.120914240623280378e+00 -2.653531661752507098e+00
2.976583070228412176e+00 1.092341597761827598e+00 -2.566559003552588702e+00
2.939199491704314937e+00 1.071356502155229817e+00 -2.586308853904359051e+00
2.848515687456784296e+00 1.007431008189846100e+00 -2.695164743349253822e+00
2.809382421297684562e+00 9.757163663667759446e-01 -2.804704590520033847e+00
2.725419652166927165e+00 9.445097173491880937e-01 -2.773913029770969985e+00
2.713110352878925990e+00 9.239119464111058555e-01 -2.666949569242381468e+00
2.705201083781665794e+00 8.988786649197929579e-01 -2.534011809903917278e+00
2.653241090846188310e+00 8.622554399127783098e-01 -2.517805811018939632e+00
2.593103883165967183e+00 8.149308184069096184e-01 -2.554417584930530616e+00
2.548842167994283869e+00 7.779668931585814740e-01 -2.617766338969250928e+00
2.473690044810227029e+00 7.293267738633735231e-01 -2.588986132800954465e+00
2.393720807961795316e+00 6.785346647189041125e-01 -2.569195365475570814e+00
2.338318690426840707e+00 6.574180691610550520e-01 -2.448594491151698360e+00
2.315308849994906826e+00 6.518572858626293653e-01 -2.362235346451084794e+00
2.239468519928880408e+00 5.796790659749391228e-01 -2.383415816209708105e+00
2.208926663391154843e+00 5.371244638054242238e-01 -2.476612508225175979e+00
2.138182611905101282e+00 4.782733509017017548e-01 -2.509647326985191107e+00
2.103614602786135990e+00 4.534457309979569306e-01 -2.506052189190570711e+00
2.052813896582424746e+00 4.258611674715093165e-01 -2.427352970554493172e+00
2.010052978886083253e+00 3.853226961785991556e-01 -2.404251619892431080e+00
1.995601952363700082e+00 3.705875476244379629e-01 -2.395115863410834045e+00
1.944768612643286820e+00 3.235717597545534896e-01 -2.395339177831078636e+00
1.830105034810753484e+00 2.204526112613603150e-01 -2.357141829656488330e+00
1.708889685978256523e+00 9.503806918394960834e-02 -2.322712864499118179e+00
1.599673092538099084e+00 -2.001480738135032883e-02 -2.273386781848791394e+00
1.491387953139011735e+00 -1.489326598531528212e-01 -2.268044107483404126e+00
1.376861003047489929e+00 -2.854799152914357374e-01 -2.268876490507740762e+00
1.259074318878036447e+00 -4.263420164782247834e-01 -2.255876323315880505e+00
1.147254980324682982e+00 -5.632742688180387702e-01 -2.253507831332833611e+00
1.028040107499406997e+00 -7.111368910322578563e-01 -2.186187152208061590e+00
9.256848636687586840e-01 -8.558306046612915718e-01 -2.125475014816387453e+00
8.408465077943826360e-01 -1.023587139379334765e+00 -1.976940058060115302e+00
7.662512352986733388e-01 -1.203700194896077713e+00 -1.906021397603547385e+00
7.142398355027810286e-01 -1.386287083069367432e+00 -1.759656885872563858e+00
6.923167288810208042e-01 -1.574175962086089786e+00 -1.638933678233884805e+00
6.801938882661210384e-01 -1.773277929541225095e+00 -1.570668078233440568e+00
6.792021981821895205e-01 -1.968506922310842455e+00 -1.639075666483763127e+00
6.701362415190992294e-01 -2.158912447476419416e+00 -1.603294170219073500e+00
6.631675532697460795e-01 -2.356590598930964120e+00 -1.587999181858369413e+00
6.643829145439543726e-01 -2.554789789034143332e+00 -1.739615466232185215e+00
6.477397649033647120e-01 -2.710112189504739977e+00 -1.624848829751677215e+00
6.545656858834736358e-01 -2.721001504428174567e+00 -1.570795525107157697e+00
6.545679848047337712e-01 -2.721000659884308170e+00 -1.570794361134374206e+00
