4.499771687421880273e+00 1.500137629109803195e+00 -3.140537717056643530e+00
4.479845739316903774e+00 1.514023831131981579e+00 -3.024888643546733924e+00
4.472657352467613201e+00 1.526734126931496682e+00 -2.919425012969694144e+00
4.446687023413252504e+00 1.521236389356025231e+00 -2.918119647476026035e+00
4.431637601897869594e+00 1.517802208902870431e+00 -2.919473148532279350e+00
4.402113860608743323e+00 1.500539013225777873e+00 -3.008936440157599534e+00
4.352591072256390525e+00 1.503332408266903286e+00 -3.125678499613099071e+00
4.312750619341560565e+00 1.504461917600279586e+00 -3.137042751361204473e+00
4.276836846055489083e+00 1.494784173689521767e+00 -3.046778867747637953e+00
4.258236267805982855e+00 1.508319035141748143e+00 -2.922405273998261777e+00
4.235079575543990060e+00 1.515546372328871350e+00 -2.821106157327593511e+00
4.214453734246021099e+00 1.500270598918359122e+00 -2.890352577923066768e+00
4.159239988984865022e+00 1.470045626762934710e+00 -3.045452645537051417e+00
4.148092804169035475e+00 1.467322313789961363e+00 -3.059870243189124039e+00
4.133563543592178924e+00 1.476715570290100921e+00 -2.955642991723239188e+00
4.128177008764057021e+00 1.456395920482848716e+00 -2.814823783744901498e+00
4.106941344988903175e+00 1.450306950634937087e+00 -2.823098866358251691e+00
3.984097298060607972e+00 1.419511087670034311e+00 -2.900271363756794063e+00
3.966865307904806404e+00 1.394684031988409512e+00 -3.064663568957771478e+00
3.941558512654927515e+00 1.381266807589893064e+00 3.119718383248851534e+00
3.849833753288663729e+00 1.386752093658262019e+00 -3.072709226031646867e+00
3.827950894963735973e+00 1.396653472516472760e+00 -2.923055610754222933e+00
3.811084757621995944e+00 1.377475256000356696e+00 -2.815999921208422574e+00
3.782850673318223667e+00 1.370776800947945961e+00 -2.835457684650760868e+00
3.675673816912473413e+00 1.345673299477056162e+00 -2.878933228030045921e+00
3.605983403052878344e+00 1.315194143687104189e+00 -2.997754352692702629e+00
3.552271456509386027e+00 1.307265648978118255e+00 -2.999607407416951865e+00
3.510316332116432569e+00 1.303031910230150192e+00 -2.978908767744175012e+00
3.471490025450469030e+00 1.294506237929776038e+00 -2.963528686482152175e+00
3.429043949763186383e+00 1.286845856592655490e+00 -2.963395375825622846e+00
3.394193759366910701e+00 1.276231577282286311e+00 -2.931329191416953250e+00
3.355179815018975997e+00 1.269125560235623951e+00 -2.799261431103531539e+00
3.325664022440073531e+00 1.271516091496922796e+00 -2.691630016426102223e+00
3.315988225653046406e+00 1.267032179622996857e+00 -2.690116269950502126e+00
3.256950247347098149e+00 1.238043536322714466e+00 -2.701310042328095129e+00
3.195002789055076953e+00 1.222029755323138511e+00 -2.776499077931934512e+00
3.165245965322527333e+00 1.222986062632560822e+00 -2.857610073591203559e+00
3.145006236697462487e+00 1.217911773355188965e+00 -2.853081163797338338e+00
3.093218723460654740e+00 1.189867292324438885e+00 -2.709079067332715862e+00
3.050609205111355138e+00 1.187896860090724038e+00 -2.563750161606089151e+00
2.978559597961585315e+00 1.141698371570392334e+00 -2.550158617640796876e+00
2.975515811363145247e+00 1.139564291907665172e+00 -2.552735179164849377e+00
2.929144564055012001e+00 1.121981578879884811e+00 -2.626641819825263013e+00
2.869468638878925670e+00 1.097616607926743759e+00 -2.673384679268592024e+00
2.788114742980616789e+00 1.051582506559223473e+00 -2.720387793124865006e+00
2.736104097416805381e+00 1.030671365618244684e+00 -2.696177114394847418e+00
2.708025706692943402e+00 1.017236958473990649e+00 -2.695272855988871896e+00
2.639818684971759755e+00 9.876172428039904361e-01 -2.663748391586523212e+00
2.609215501175640828e+00 9.587013802043321542e-01 -2.546203987231522969e+00
2.612240885581193606e+00 9.438513753717630017e-01 -2.441583685324398179e+00
2.590697749783755111e+00 9.178817606141502772e-01 -2.402132059369976425e+00
2.526319078936461349e+00 8.627932755522252917e-01 -2.374639835449610548e+00
2.469574375988355719e+00 8.182914128365923467e-01 -2.296737440506513295e+00
2.434408132212426246e+00 7.845554739992658400e-01 -2.225893851176667493e+00
2.437305088584374779e+00 7.740031635379520658e-01 -2.153027463970402788e+00
2.424721297868889902e+00 7.618208284850961354e-01 -2.122363923969881050e+00
2.400762678672525574e+00 7.350322139075762262e-01 -2.064754690939233139e+00
2.369724913875642436e+00 6.788286722237384385e-01 -2.054973226153690824e+00
2.317288359614102511e+00 5.630572853401456523e-01 -2.008984158562283184e+00
2.298331008096243355e+00 5.230518777745835068e-01 -2.005336156893958943e+00
2.236253715240488216e+00 4.103740210706694480e-01 -1.876880228665992245e+00
2.185834788113133254e+00 2.446373370704786054e-01 -1.786424244669939654e+00
2.167603468706012837e+00 1.906975194993220657e-01 -1.724480045080200918e+00
2.146676048250445223e+00 7.630505425105400807e-02 -1.651338732278835320e+00
2.134377494758063154e+00 3.779533647541805097e-02 -1.571133634597185580e+00
2.133495637308555626e+00 -8.224409517828315530e-02 -1.537705021977118447e+00
2.149671342708493693e+00 -1.733652127710523794e-01 -1.453624127755444029e+00
2.163721759185396554e+00 -3.345460226174044593e-01 -1.389371705264669243e+00
2.192296739316310195e+00 -5.020735728619167837e-01 -1.232693887459447302e+00
2.244819946419884804e+00 -6.676695879565989200e-01 -1.083368463825458594e+00
2.310638231250043528e+00 -7.960114552478991801e-01 -1.046667726957641875e+00
2.411833252902220170e+00 -9.501775625967224803e-01 -9.819008131811339801e-01
2.518753283983534708e+00 -1.110099622987384960e+00 -9.428044727469514497e-01
2.607204581424422241e+00 -1.229074988413506153e+00 -9.145164529161143863e-01
2.725903374589124795e+00 -1.385030189313014581e+00 -7.796408276456747721e-01
2.828069401846629916e+00 -1.492211102479134910e+00 -6.950195189949863739e-01
2.978901048485398828e+00 -1.617282128989851131e+00 -7.125547347544691767e-01
3.118881126027249096e+00 -1.738272245716512066e+00 -7.042470995085362562e-01
3.244630802138083858e+00 -1.843969781176784561e+00 -7.286128404373831691e-01
3.371163495017382772e+00 -1.961756659162936289e+00 -6.233141373468590318e-01
3.489868866800593050e+00 -2.047088108966482967e+00 -6.218409572646332872e-01
3.624720899244834094e+00 -2.146133285667305657e+00 -5.162853529235319483e-01
3.794462591819133035e+00 -2.243562900734862975e+00 -4.915117424919399070e-01
3.953163131316100198e+00 -2.333594376518553393e+00 -3.929787680475496092e-01
4.090168406237255638e+00 -2.384983811726371972e+00 -3.564268045243597638e-01
4.126236016977633980e+00 -2.380739909319162795e+00 -1.976441596726124794e-01
4.180272108955688459e+00 -2.401330901738060408e+00 -3.360717508241634760e-02
4.194583451238059091e+00 -2.423775848520643983e+00 1.446405918791121292e-01
4.239901148989334345e+00 -2.404946466959612117e+00 3.063082496143100797e-01
4.351726071722977984e+00 -2.374901688311735537e+00 3.923605677623097643e-01
4.374382660584505089e+00 -2.388429507175279021e+00 5.619932857839275986e-01
4.395009226438141958e+00 -2.402071212665747968e+00 7.412087127438549139e-01
4.414833805711871229e+00 -2.415303135592993033e+00 9.213760970595665789e-01
4.408099247854293523e+00 -2.426553899246188806e+00 9.699291358446007205e-01
4.406473898029462433e+00 -2.403270080244734430e+00 1.067293731496653297e+00
4.425727893193518447e+00 -2.368352725877755027e+00 1.067849354637138370e+00
4.437107039495817418e+00 -2.345402268829011927e+00 1.124815651518886073e+00
4.461253164116915748e+00 -2.348683886787746644e+00 1.307420200242876529e+00
4.484605779563613837e+00 -2.349927452132604344e+00 1.485610530369982696e+00
4.508146794318160566e+00 -2.348097188216442088e+00 1.666449724386772857e+00
4.518931632692065214e+00 -2.336195633091449064e+00 1.759757468376904388e+00
4.523471882465084803e+00 -2.359535805796949326e+00 1.761349354797290045e+00
4.513137625159544974e+00 -2.370851385364301844e+00 1.867311572424491972e+00
4.487862585938183990e+00 -2.371339325148630550e+00 2.048335442814069207e+00
4.464392932335550235e+00 -2.370658941783152507e+00 2.195694665647766719e+00
4.440809167195979512e+00 -2.337949600445244691e+00 2.195589434900412584e+00
4.422052736001445439e+00 -2.297172393424292469e+00 2.265303678294804168e+00
4.425483822691309577e+00 -2.282591298609657482e+00 2.361716723576282817e+00
4.426303439453100452e+00 -2.269408314164540030e+00 2.452859338234091524e+00
4.412835036571093106e+00 -2.256496995508820103e+00 2.477295352117806271e+00
4.390213147185845877e+00 -2.244768663457713309e+00 2.435952860265545805e+00
4.356779030005576203e+00 -2.217129870254363588e+00 2.430451771546549011e+00
4.340292019432943071e+00 -2.205304783435171778e+00 2.414388689259401755e+00
4.326629292869305310e+00 -2.197179096796684217e+00 2.388745893554844457e+00
4.306806920604712374e+00 -2.178726729349196312e+00 2.388920375017358211e+00
4.281767948659735090e+00 -2.155296083199808255e+00 2.389742995391755720e+00
4.267619279487782968e+00 -2.126993353316385615e+00 2.484911671788803567e+00
4.264198535499593490e+00 -2.119411149206759770e+00 2.515770983861852272e+00
4.176885109996304024e+00 -2.053831162999887550e+00 2.476532143075781178e+00
4.159885574735207925e+00 -2.040675583922746394e+00 2.474227765693684411e+00
4.131350592770448138e+00 -2.016158066574420094e+00 2.450879094290287163e+00
4.120010484858059208e+00 -2.017422689288324467e+00 2.385151674345763695e+00
4.119070519234155014e+00 -2.003431858041894387e+00 2.463467186964505284e+00
4.079561213204228487e+00 -1.960444608169271019e+00 2.554549920780940564e+00
4.047700433876685544e+00 -1.938981057719441070e+00 2.557416715367557991e+00
3.992485483592716822e+00 -1.905297650934278053e+00 2.534463421006715844e+00
3.965256506477877974e+00 -1.903943149837614479e+00 2.414534031260454405e+00
3.925960909715143998e+00 -1.869843850902651372e+00 2.407347080964795438e+00
3.924528117777685843e+00 -1.868080005650855968e+00 2.411771809496756624e+00
3.913011344332216979e+00 -1.873066334302361913e+00 2.498231819385633656e+00
3.901892238929790757e+00 -1.878171591321035949e+00 2.579521580090001542e+00
3.873316923827077929e+00 -1.859969058340493753e+00 2.605865484092784623e+00
3.836509390939269792e+00 -1.844645365372081125e+00 2.553109539171686926e+00
3.775427765476842445e+00 -1.814857576052667509e+00 2.456122105751576079e+00
3.757190163489213752e+00 -1.799271305411847433e+00 2.461476014354853525e+00
3.744930947404492727e+00 -1.772016200328020430e+00 2.575820576766675529e+00
3.751968384483056695e+00 -1.774389193466597625e+00 2.588587947430247116e+00
3.734856688563612526e+00 -1.763852021202823916e+00 2.589108643868779591e+00
3.696039825455712080e+00 -1.748143002206052010e+00 2.511059581166984689e+00
3.687451615892644252e+00 -1.741892121745259425e+00 2.510941043559453689e+00
3.663935879414224939e+00 -1.736229863112986438e+00 2.573536271789071961e+00
3.626329170445919292e+00 -1.712291587777481583e+00 2.574407545044710588e+00
3.599946599933135705e+00 -1.694184646201765565e+00 2.601469112494831037e+00
3.561388757097601054e+00 -1.671000923430624230e+00 2.602946028422312708e+00
3.545821261582304817e+00 -1.658812109367875820e+00 2.624173362135829635e+00
3.537180009545190185e+00 -1.643756132736379660e+00 2.695639503562967665e+00
3.530069535173505191e+00 -1.639770615112448704e+00 2.700032076494609967e+00
3.515604907485392783e+00 -1.620596201667835246e+00 2.620661769350168591e+00
3.475342855802062036e+00 -1.591526805600351535e+00 2.570483223509659521e+00
3.451688815440775215e+00 -1.576376952409658694e+00 2.572451140954413074e+00
3.427694536812980530e+00 -1.560583504250029563e+00 2.597234199288000145e+00
3.408899628026772266e+00 -1.549384556022615600e+00 2.599232315828164275e+00
3.386873318452600756e+00 -1.536516069286069985e+00 2.603107414869004099e+00
3.371585460618695684e+00 -1.524651230748264918e+00 2.626503977867692630e+00
3.358741499472179370e+00 -1.512831356235839531e+00 2.659160422628188414e+00
3.356498769718912811e+00 -1.501431594873889441e+00 2.730631879999863010e+00
3.336519034421753460e+00 -1.492660039969179397e+00 2.731531866926775187e+00
3.321438483142301834e+00 -1.491196295259729077e+00 2.694387816986322903e+00
3.293630906929383428e+00 -1.480185917617573343e+00 2.676516137413080365e+00
3.287010100674673918e+00 -1.476176240768937165e+00 2.671806188305868801e+00
3.276812437590467031e+00 -1.470218359984229117e+00 2.683382357737324586e+00
3.269991066813735969e+00 -1.461580630884875553e+00 2.648519187376305428e+00
3.238521395707631534e+00 -1.445529456726293294e+00 2.655018282249804518e+00
3.211883953409107484e+00 -1.431577031491079843e+00 2.655948303061242743e+00
3.179962282448015376e+00 -1.407557886409413372e+00 2.721505186358665895e+00
3.155508502791231962e+00 -1.386328947011423285e+00 2.803931939567091192e+00
3.118772092886239466e+00 -1.375419704424716283e+00 2.786115890049186916e+00
3.088328085181780036e+00 -1.367822695780010811e+00 2.755986158523049401e+00
3.066413504041305416e+00 -1.355737229588137360e+00 2.781465025436986593e+00
3.042277786800039685e+00 -1.352641283339458100e+00 2.736383244062603026e+00
3.013783112218275217e+00 -1.336773952906649798e+00 2.766496867567765250e+00
3.002227590981880745e+00 -1.331474141803288713e+00 2.761479601107623250e+00
2.964515241462105877e+00 -1.324147891449394709e+00 2.809578246740251029e+00
2.941924309110497848e+00 -1.322116386383177966e+00 2.849552395164724583e+00
2.910596202427754076e+00 -1.316136974476576293e+00 2.822098761794674893e+00
2.849615983788813534e+00 -1.302397713978030502e+00 2.759740321795779217e+00
2.828623289202401470e+00 -1.303096716418347345e+00 2.689218196876079769e+00
2.779544573748548242e+00 -1.279407574651281632e+00 2.687701539702607167e+00
2.764063224995948254e+00 -1.256574588331651254e+00 2.800487398895101343e+00
2.752405079843126323e+00 -1.236639462795865008e+00 2.921746626928729107e+00
2.737873816746815958e+00 -1.231680864266819775e+00 2.937753476844059186e+00
2.719056687180084531e+00 -1.233579093637965585e+00 2.883585164912001453e+00
2.687991045371184828e+00 -1.226772619561789401e+00 2.865407994610797981e+00
2.667176211019634646e+00 -1.220886849689176934e+00 2.865611168599197622e+00
2.641958877492297741e+00 -1.223540215338789983e+00 2.934220783445845360e+00
2.626468421693159083e+00 -1.218118436336109500e+00 2.960881065473087936e+00
2.576371462642940369e+00 -1.208904117692396474e+00 2.961271072451094000e+00
2.545256674555442356e+00 -1.219235401725921486e+00 2.826160101120205326e+00
2.524284809503110072e+00 -1.221090599289870626e+00 2.757013407295457075e+00
2.500524422345120623e+00 -1.211737666490384502e+00 2.755587532184587740e+00
2.482535198244907537e+00 -1.190380036621665250e+00 2.865380344619003150e+00
2.466325281262218283e+00 -1.177307872011603251e+00 2.933784763174646759e+00
2.462381272195044435e+00 -1.172314514967695231e+00 2.966516847772135534e+00
2.443998988764727542e+00 -1.162342809386200493e+00 3.022461149379064516e+00
2.404881891856527343e+00 -1.165814737859484307e+00 2.946472009366437828e+00
2.385072472377311126e+00 -1.162570877526560631e+00 2.940686760395340382e+00
2.302799982799366152e+00 -1.146083160278066337e+00 2.942444971702409262e+00
2.243331619766130824e+00 -1.127011054949370150e+00 3.011424359280614027e+00
2.212111582676663968e+00 -1.119622848290141359e+00 3.043145153753624488e+00
2.206861782754849344e+00 -1.109770400816088243e+00 3.116963735303110550e+00
2.132751794584805349e+00 -1.107765770672515915e+00 3.119100373509314572e+00
2.118680171889544717e+00 -1.112461596181496537e+00 3.077930604434716333e+00
2.066411330037226879e+00 -1.113270561637725864e+00 3.036432233380104151e+00
2.037028792302792990e+00 -1.110208182234061702e+00 3.036788658131358343e+00
2.014575867503035411e+00 -1.107917836110047904e+00 3.037711683955769182e+00
1.983388550163950326e+00 -1.102476242731843747e+00 -3.128664689603846139e+00
1.960827121939850093e+00 -1.105064925647810448e+00 -3.112771640539548912e+00
1.936409284985886492e+00 -1.112584569905279430e+00 -3.064536972797170300e+00
1.857959526574857190e+00 -1.120089480212682620e+00 -3.050918457799991046e+00
1.769933957926494994e+00 -1.132202639738070227e+00 -3.099988917592255255e+00
1.737534814441757280e+00 -1.129638919090947269e+00 -3.066071644732030865e+00
1.705384766075091596e+00 -1.128137298765873542e+00 -3.032617494499593835e+00
1.668127690987426748e+00 -1.125559226203035612e+00 -3.134230933378149508e+00
1.602822004493697161e+00 -1.109920207111521506e+00 3.050533575460669500e+00
1.575459288466220853e+00 -1.099600255884019218e+00 3.118391533960819917e+00
1.511045707802584515e+00 -1.085455588074074162e+00 -3.031166837872301567e+00
1.475167557472081281e+00 -1.086271156674246452e+00 -3.002049982056965938e+00
1.398654893782029784e+00 -1.092986236990623805e+00 -2.955289411687533896e+00
1.296064889410665888e+00 -1.114148736454998900e+00 -2.993726298858453649e+00
1.259211528471592123e+00 -1.123479121520056356e+00 -3.030294211762298406e+00
1.125005886845162006e+00 -1.130914242265588898e+00 -2.911990455556686452e+00
1.004854614681191638e+00 -1.158951917884401883e+00 -2.909695661360800045e+00
9.654732675164650058e-01 -1.168227157067077249e+00 -2.910738187607154970e+00
7.865024582437444289e-01 -1.210355908707024364e+00 -2.910339270457760197e+00
7.033060156036617938e-01 -1.233346578118077908e+00 -2.889775780911158609e+00
5.830094918588117903e-01 -1.265986764914944551e+00 -2.777006481258858184e+00
4.140307176204828243e-01 -1.329955857134701214e+00 -2.726123746511854407e+00
2.521324936992590526e-01 -1.398559940255126088e+00 -2.668042222952853759e+00
9.296790661818037094e-02 -1.471309304469403445e+00 -2.499398442715420110e+00
-5.320138120261533321e-02 -1.597269730219762929e+00 -2.383946515515781517e+00
-1.914546413173565109e-01 -1.727365008172550898e+00 -2.281846479912259085e+00
-3.194114566199258709e-01 -1.875142619977483660e+00 -2.255689380959086776e+00
-4.465381711333680781e-01 -2.032319004498198023e+00 -2.223361124749148043e+00
-5.621832963393035287e-01 -2.182376116013549527e+00 -2.191324581590506693e+00
-6.762171417295841369e-01 -2.342084216675604846e+00 -2.210242204274327715e+00
-7.927504129114952836e-01 -2.500332832987524512e+00 -2.310166754366981046e+00
-9.224957403731207650e-01 -2.643212568656545081e+00 -2.287586093669959908e+00
-1.042027099102123655e+00 -2.783532213153713908e+00 -2.362374162916999865e+00
-1.177903439050222545e+00 -2.917888827199254020e+00 -2.307409682570895626e+00
-1.293691115852261930e+00 -3.048196156535733614e+00 -2.364315058136150061e+00
-1.427880492039199645e+00 -3.183723402475421516e+00 -2.416574906045479310e+00
-1.567954762605108909e+00 -3.315488972385741029e+00 -2.575160536921783816e+00
-1.737105584885512144e+00 -3.406299963941058717e+00 -2.720061811472240798e+00
-1.917525201726816952e+00 -3.486159853916173557e+00 -2.806590242527620127e+00
-2.097193962316809657e+00 -3.551984902741153416e+00 -2.876808087503766931e+00
-2.288851755223507478e+00 -3.610011717104143258e+00 -3.058528747565352646e+00
-2.439496309225788639e+00 -3.597561857314044875e+00 3.048193303435957624e+00
-2.621966911082288298e+00 -3.582588922640175255e+00 2.928706828346624214e+00
-2.687236000311346462e+00 -3.564514765505361726e+00 2.959931830925436103e+00
-2.695084395554967482e+00 -3.557064080453501198e+00 3.006377362535791686e+00
-2.699384006292690596e+00 -3.553347230754992925e+00 3.030505049939907547e+00
