4.500230448065297040e+00 1.499998457624088122e+00 -3.141575048062082320e+00
4.433949163065848076e+00 1.511284450771820609e+00 -3.020917985260669347e+00
4.379214234416311413e+00 1.517106382345417170e+00 -2.901664082697402502e+00
4.324451855200572403e+00 1.503700218926229182e+00 -2.904339458073664115e+00
4.263500946720578000e+00 1.504825264402669172e+00 -3.002618316204901383e+00
4.228260973270558054e+00 1.512716592346138977e+00 -3.088524662106526542e+00
4.210295145628073499e+00 1.504640995046926388e+00 -3.031496096878244728e+00
4.190067751850497402e+00 1.513753294766288615e+00 -2.927904669988711461e+00
4.142689383286781712e+00 1.510695163792425300e+00 -2.866042374629732326e+00
4.129667334330666684e+00 1.514755097249263605e+00 -2.805910765380037475e+00
4.079336248312403157e+00 1.496730484775725234e+00 -2.810730070079169085e+00
4.051752179199699100e+00 1.478086512118858220e+00 -2.887285289291825485e+00
4.030249964681793529e+00 1.471768662909883396e+00 -2.996729298790235418e+00
3.977753832557394897e+00 1.464584529051748074e+00 -3.001092001538506082e+00
3.964125001387837965e+00 1.451877259846100499e+00 -2.922682933094842284e+00
3.948453642052037971e+00 1.448095623635275553e+00 -2.920156086938153095e+00
3.914815159880594919e+00 1.452464312094589705e+00 -3.001824609890925810e+00
3.878169320160718581e+00 1.452961122466657873e+00 -3.038588738275910028e+00
3.848437394929206334e+00 1.454010321999012589e+00 -3.002590777636781727e+00
3.832689310774416658e+00 1.466730986236182810e+00 -2.884176650692935162e+00
3.789844305858662832e+00 1.472103734793776209e+00 -2.738659371785171714e+00
3.774479875763196990e+00 1.457316756219140030e+00 -2.802386345411365998e+00
3.740875177013313735e+00 1.428761013333646579e+00 -2.946407759203002907e+00
3.702460401458723904e+00 1.429562209054614952e+00 -3.099637454602621300e+00
3.684355660908565699e+00 1.429126678720705312e+00 -3.065327883234266526e+00
3.683192893627540432e+00 1.407457585302581693e+00 -2.899424846984683946e+00
3.662101287942788108e+00 1.379518024047258651e+00 -2.746787839135744314e+00
3.636314746598635406e+00 1.363894042063132472e+00 -2.715614459670193437e+00
3.619849229499806142e+00 1.343362031203787277e+00 -2.815837988086377752e+00
3.611462519265022930e+00 1.335251340003037690e+00 -2.888089069167897538e+00
3.536934036311766505e+00 1.312870695179444436e+00 -2.917481537343880493e+00
3.508835989667167699e+00 1.305532128614709464e+00 -2.925302570078508246e+00
3.474983753058092262e+00 1.308720530564446927e+00 -2.834282073884569542e+00
3.456533213249476155e+00 1.312161526006195622e+00 -2.758500061834944450e+00
3.405854329230506128e+00 1.285600591293305506e+00 -2.716300045008938291e+00
3.377093921099849183e+00 1.267357924401405045e+00 -2.754680425999139537e+00
3.369817247222099965e+00 1.255380063173532346e+00 -2.836762881622179933e+00
3.320031376671317869e+00 1.240002856786176944e+00 -2.837669973904285659e+00
3.282604288888516741e+00 1.235264880111992536e+00 -2.780860158104445201e+00
3.256320270176402687e+00 1.241029900787889551e+00 -2.657714642790202753e+00
3.186899992856347286e+00 1.212217604238124524e+00 -2.579921715402089255e+00
3.135117388772087121e+00 1.193980719851638783e+00 -2.658384033134339131e+00
3.039638791977443244e+00 1.141100960370218020e+00 -2.762939124428126725e+00
2.965956483141168221e+00 1.111170025880424239e+00 -2.769262956549364496e+00
2.953992747921871054e+00 1.123501264050099424e+00 -2.646279658238167798e+00
2.934448156906771299e+00 1.134953622912509230e+00 -2.491643187643961532e+00
2.929088442338082299e+00 1.131167010863675992e+00 -2.489840163387178951e+00
2.890557965826040299e+00 1.102308535261225630e+00 -2.493203926353295241e+00
2.811058403740327449e+00 1.041863890625271516e+00 -2.559510511919526277e+00
2.729867957755633956e+00 9.860099454439170685e-01 -2.585188996859705490e+00
2.699735578844693507e+00 9.712075959724139063e-01 -2.556125723764751001e+00
2.657077882665580315e+00 9.475775425952176478e-01 -2.517977425859064144e+00
2.629436015951682304e+00 9.237997012911047801e-01 -2.460133277789264383e+00
2.528816667868736712e+00 8.475331654623116107e-01 -2.329989915291053926e+00
2.501786709325656055e+00 8.308382904157903814e-01 -2.259577706790583562e+00
2.463708053685255361e+00 7.848554948742095805e-01 -2.256502822181185142e+00
2.453585675621110074e+00 7.639998538216076218e-01 -2.216911311602689505e+00
2.379655121139203633e+00 6.617482950054431878e-01 -2.200891816966210168e+00
2.352491926288466928e+00 6.261780854522939199e-01 -2.191896855489137597e+00
2.328549591142913044e+00 6.240436233138424438e-01 -2.043628692627573962e+00
2.294378820911847860e+00 5.719611967316973189e-01 -1.967790641448122546e+00
2.264994046784270409e+00 4.931033428787237605e-01 -1.941832371889453235e+00
2.235416028053747173e+00 4.573039094147476891e-01 -1.799799646198839698e+00
2.211094407906825321e+00 3.884848935818735471e-01 -1.649854638584554056e+00
2.232690510899030034e+00 3.380485116931518652e-01 -1.485400256090664728e+00
2.251332127022533047e+00 1.923043960833742128e-01 -1.360288036816726498e+00
2.285447894858512630e+00 7.922940711110922074e-02 -1.209717008116177439e+00
2.303618485350271694e+00 1.143593562397881257e-02 -1.055562915917273692e+00
2.304194582785169310e+00 -2.666790184043869166e-02 -8.957159596929215040e-01
2.401206205844244046e+00 -1.126604062845354137e-01 -7.392904492622968116e-01
2.469621305601441996e+00 -1.790571415298196356e-01 -7.044295135927497453e-01
2.599671637165897664e+00 -2.831554067520913875e-01 -6.368889558380966820e-01
2.628842631438692568e+00 -2.956370328799975966e-01 -5.499991456368821252e-01
2.645770634208187033e+00 -3.293686613720375189e-01 -3.753876550363311471e-01
2.809852405835524092e+00 -3.764358223170710116e-01 -2.193497555944241284e-01
2.891357302384243155e+00 -4.047264128105711456e-01 -1.267991586423381778e-01
3.042497112307207541e+00 -4.206002152018046281e-01 2.377313271200239345e-02
3.224144739691977790e+00 -4.092893851466695709e-01 1.813341100369348646e-01
3.405351218606450292e+00 -3.641930591590299415e-01 3.531127972919285152e-01
3.499607704371681560e+00 -3.356043959105413643e-01 4.406699948906813713e-01
3.499917520899987089e+00 -3.356102080024728207e-01 4.407803443726407977e-01
3.500114095165948402e+00 -3.356400383727967673e-01 4.410260743405420292e-01
