4.499732016170876037e+00 1.499998113981274361e+00 -3.141586364348782912e+00
4.469079941934904099e+00 1.504545011334390336e+00 -3.086717806076020754e+00
4.430572956574739152e+00 1.492744942394580221e+00 -3.021710388178563189e+00
4.420978263844205891e+00 1.486835975563740808e+00 -3.058495044934591345e+00
4.356448173175499150e+00 1.481168889080734630e+00 -3.063831422086233047e+00
4.343867907202251466e+00 1.473386220959274961e+00 -3.119431380815618216e+00
4.291732371062906282e+00 1.472210823588631312e+00 -3.121638283477748743e+00
4.243446604273612088e+00 1.483631306238658132e+00 -3.005451927130089906e+00
4.209827869196258732e+00 1.484498599766321592e+00 -2.957393836756105010e+00
4.173110406147971574e+00 1.477309055005806560e+00 -2.961869578493999011e+00
4.114131962721810254e+00 1.461819107923606254e+00 -3.008815667485740697e+00
4.092053538716879046e+00 1.453444727533822478e+00 -3.126089330824383339e+00
4.009636641418312664e+00 1.453242120058553466e+00 -3.131078244345044670e+00
3.993631415320423539e+00 1.463063662568427681e+00 -3.049424171590418009e+00
3.981456632860557843e+00 1.475549474994784394e+00 -2.940822065598355906e+00
3.922660261738485588e+00 1.471410220054976126e+00 -2.863894308254296472e+00
3.873682250051805998e+00 1.457504122059466889e+00 -2.863493528785231668e+00
3.850412308786836935e+00 1.450481191963934435e+00 -2.867742320107668164e+00
3.827211121942577066e+00 1.442091415936221699e+00 -2.883732273133707835e+00
3.787947883439231944e+00 1.423216870105521004e+00 -2.959260593582784260e+00
3.745293113246397354e+00 1.416583644383268892e+00 -3.024198463818197347e+00
3.743149754725735079e+00 1.412364314593702819e+00 -2.993307057221686662e+00
3.728837649374064700e+00 1.415964776789585322e+00 -2.936439853942073075e+00
3.694828299921972814e+00 1.416577642384228675e+00 -2.821647831814475982e+00
3.681613471196659937e+00 1.417770257729111583e+00 -2.751390283323720709e+00
3.596921885603070912e+00 1.387340846054221588e+00 -2.775866595640903434e+00
3.497348683961131410e+00 1.343931249782408743e+00 -2.844391132903593356e+00
3.400610378251424759e+00 1.315508213496827006e+00 -2.905633682705022203e+00
3.343092240134193371e+00 1.308902485260230897e+00 -2.841733579933657161e+00
3.322689178292452805e+00 1.311082500664613848e+00 -2.774459176778223402e+00
3.280304317924934931e+00 1.308140917281905846e+00 -2.660326629403452880e+00
3.229153032344953544e+00 1.281969159955234305e+00 -2.654772898300583162e+00
3.174385460478469145e+00 1.240145616338018231e+00 -2.772270669910152918e+00
3.092587666981154726e+00 1.212115528952009802e+00 -2.832626436315229146e+00
2.979646781539067035e+00 1.180684886096856179e+00 -2.772340404521357105e+00
2.955568823697335201e+00 1.181750457798451892e+00 -2.651613327083070626e+00
2.899251733866660796e+00 1.161757515036439203e+00 -2.562810828442090738e+00
2.839267351413548024e+00 1.122584366158988489e+00 -2.563284563885862788e+00
2.731072449505598687e+00 1.064111646448307580e+00 -2.623421012395954932e+00
2.689872442981938949e+00 1.040414108162533102e+00 -2.626316927128229395e+00
2.673129005405590508e+00 1.030864725485397759e+00 -2.626587845068652616e+00
2.639258688565619515e+00 1.019343109861099661e+00 -2.567636093124400887e+00
2.615424472590068827e+00 1.011437687372301886e+00 -2.513880278576192673e+00
2.592967410859509769e+00 9.954656749907653257e-01 -2.511028627989261519e+00
2.573188768715462871e+00 9.757519625922534967e-01 -2.549639434830334395e+00
2.546509311495423589e+00 9.577940940291739258e-01 -2.548279302702422200e+00
2.459385655841423102e+00 8.932378021209942398e-01 -2.520942043777624875e+00
2.416064942319757325e+00 8.668323795599137682e-01 -2.474052729745532364e+00
2.381207330647805875e+00 8.582415903056932471e-01 -2.344526068892091697e+00
2.346735993228557859e+00 8.315736554780949197e-01 -2.288622972340330186e+00
2.308847339751467942e+00 7.882739229205538711e-01 -2.288550383893638074e+00
2.235340111200243562e+00 7.181539984850424663e-01 -2.387829276081617991e+00
2.185343060969066720e+00 6.715094007976728507e-01 -2.385437587523902891e+00
2.145435578011841926e+00 6.252690009643218083e-01 -2.447999100858642585e+00
2.091993346051423064e+00 5.872760197217792300e-01 -2.398074564189625058e+00
2.067515876634995031e+00 5.553964761665620697e-01 -2.327398067454002462e+00
1.994273547975682348e+00 4.741463576029351645e-01 -2.314926018025392551e+00
1.920782486545453027e+00 3.943399114658151516e-01 -2.315090245113756939e+00
1.878260215774600450e+00 3.482086883783088171e-01 -2.314246159909588929e+00
1.841298995636625913e+00 3.076351764930572719e-01 -2.332123000255024614e+00
1.756566659939288844e+00 2.314729040135224403e-01 -2.415107077163473726e+00
1.680636541263033079e+00 1.713441255508694472e-01 -2.348625353769955293e+00
1.637249422499191143e+00 1.421296061720864756e-01 -2.251822651636351758e+00
1.591369762850337155e+00 6.576539804464348604e-02 -2.170461616263080540e+00
1.509940197028397435e+00 -3.913596825849955524e-02 -2.220958508007803367e+00
1.426282172798449599e+00 -1.531098274848624041e-01 -2.260827924844757142e+00
1.308489471071098142e+00 -2.933412493486576289e-01 -2.290111353465949406e+00
1.201210348609253797e+00 -4.182483004918080560e-01 -2.278147751739987292e+00
1.089730904748877016e+00 -5.487247046569416753e-01 -2.278095155348107248e+00
9.877524946931217631e-01 -6.947959569471064967e-01 -2.176028570563548037e+00
8.842384748354422674e-01 -8.365052181190777425e-01 -2.072143377473991688e+00
8.145263169376989465e-01 -9.838902709821572001e-01 -1.979382623004508401e+00
7.371889215763061109e-01 -1.161659514390922743e+00 -1.879951676129743676e+00
6.896373932337673818e-01 -1.350545483235961797e+00 -1.782720807715372002e+00
6.528305209484599470e-01 -1.521769511093785443e+00 -1.688919943963641090e+00
6.456090694092525561e-01 -1.707728075424371328e+00 -1.609049924427128797e+00
6.377118148613493132e-01 -1.904484947452883326e+00 -1.735819865476376345e+00
6.061863742703252900e-01 -2.098889487007816523e+00 -1.714253543626777843e+00
5.816153650750234272e-01 -2.289522081126561748e+00 -1.693074895368575250e+00
5.612021519510624890e-01 -2.483281528268300953e+00 -1.809274377457934735e+00
5.121698277554563861e-01 -2.674609124378354963e+00 -1.830820285708909978e+00
4.843198444700018146e-01 -2.703108913518964318e+00 -1.661618905727670237e+00
4.906388336937080874e-01 -2.713689816384063480e+00 -1.606731172960329523e+00
