4.499852289627480850e+00 1.499999003409587583e+00 3.141528063440379714e+00
4.497382116676096331e+00 1.500740257884752626e+00 -3.132427996605691156e+00
4.493081942446525368e+00 1.502321335674858593e+00 -3.118642387505475178e+00
4.484383004056962996e+00 1.503006438531479860e+00 -3.110663975523208613e+00
4.473759846843087473e+00 1.502986793710480828e+00 -3.108859953892290306e+00
4.468055483396492278e+00 1.502453551067176374e+00 -3.111743709912825118e+00
4.463200088170179214e+00 1.503016837258529970e+00 -3.100615575953395098e+00
4.453358661807444108e+00 1.502819994589168706e+00 -3.098820076709228211e+00
4.449266879320051160e+00 1.502662161945118369e+00 -3.099240662778496525e+00
4.440235906798346122e+00 1.501923304893001632e+00 -3.108178498311965576e+00
4.200604913033369137e+00 1.494168713073621424e+00 2.951922539884809904e+00
4.034504893704406570e+00 1.526530453431703682e+00 3.031567269491805661e+00
3.909394241174933615e+00 1.542900647098697009e+00 3.062604661595636824e+00
3.731202393102217130e+00 1.560225237988396296e+00 3.139330118022471527e+00
3.667022547243913522e+00 1.566265391176499877e+00 -3.076896561050604717e+00
3.491998924655639325e+00 1.560659055802504414e+00 -2.993283709166467244e+00
3.335312219303851577e+00 1.541140627744066238e+00 -2.915023318277011111e+00
3.156404972699114353e+00 1.502402220826974277e+00 -2.882735374012733942e+00
3.018828866351300988e+00 1.471156982257442625e+00 -2.800032111775364818e+00
2.879640089289016380e+00 1.425337395658889728e+00 -2.682250558513461058e+00
2.699410497231642392e+00 1.341230511472643050e+00 -2.529556692275759744e+00
2.538453767855517906e+00 1.227200302277528632e+00 -2.488841560635604022e+00
2.392711949609958921e+00 1.115176751706135061e+00 -2.451379970838647893e+00
2.236073310828998295e+00 9.922080653044859089e-01 -2.276191957444135827e+00
2.103695798760855329e+00 8.454993304082045746e-01 -2.098001714621531733e+00
2.003901238784409955e+00 6.713510290322750595e-01 -2.047003649420422455e+00
1.961155556270750111e+00 6.260621540746218461e-01 -1.877482603854342180e+00
1.913246999888007061e+00 4.974701278809017801e-01 -1.797321301617904155e+00
1.879378007566793185e+00 3.565602898571915147e-01 -1.654995954204081743e+00
1.868251684937623391e+00 2.490082084481155811e-01 -1.640371545253641816e+00
1.852131314525839789e+00 1.307318244934470020e-01 -1.505137077687655811e+00
1.848018008643314891e+00 3.539449752586140696e-02 -1.395616447738755150e+00
1.845648510944826626e+00 -4.717974818743454757e-02 -1.212102243080622310e+00
1.863505633481681745e+00 -8.485840041999850869e-02 -1.125761067794196935e+00
1.894417412578447202e+00 -9.845938250948396697e-02 -9.705183215272483732e-01
1.913005396988879836e+00 -9.172763718139351208e-02 -8.083851714164341784e-01
1.908225374661738138e+00 -1.173814649527486625e-01 -6.325441805458749123e-01
1.899531044314251016e+00 -1.388971956974394129e-01 -4.567623526403533085e-01
1.893433276559653988e+00 -1.603089232881600990e-01 -2.891845257229036514e-01
1.878455027094185548e+00 -1.561070105775022865e-01 -2.874934965492124683e-01
1.853916088211979174e+00 -1.488376879065725078e-01 -2.870714539696672674e-01
1.843954091969020270e+00 -1.454068750896166384e-01 -2.663959410998121280e-01
1.855268004405771221e+00 -1.461070937321279350e-01 -2.213825862744058237e-01
1.863590215816964157e+00 -1.352125443168774588e-01 -3.194258650338153704e-01
1.867031661746036075e+00 -1.331870224779592993e-01 -3.438020132968988563e-01
1.864482499420406780e+00 -1.486300938593322352e-01 -2.015940197686460766e-01
1.866603016157604156e+00 -1.634305646974951731e-01 -7.364882907316221139e-02
1.872468051307299319e+00 -1.697801226566787169e-01 -2.654389527801453638e-02
1.873153971535045814e+00 -1.559581702680417625e-01 -1.342870892001012950e-01
1.882813011327020947e+00 -1.464852399690985130e-01 -2.194753580476290489e-01
1.884932925809111426e+00 -1.477650499540982543e-01 -2.108226832231888948e-01
1.886196718722128018e+00 -1.512394073364500546e-01 -1.849083001777890867e-01
1.890417900496509374e+00 -1.564753831811448725e-01 -1.492040458582020446e-01
1.891980227990879282e+00 -1.600723587673081039e-01 -1.220144365357669347e-01
1.899662099465004195e+00 -1.643723193702800178e-01 -9.445991520224006344e-02
1.901934703289819950e+00 -1.702195519168827054e-01 -5.027103087599556902e-02
1.902222749689179926e+00 -1.703361779185817715e-01 -4.907520008402216360e-02
1.920829633932867431e+00 -1.767348826720610278e-01 -1.919377700760987755e-03
1.929751333340300024e+00 -1.742441047616790639e-01 -2.286616028879525850e-02
1.933528862585201624e+00 -1.613928311281479233e-01 -1.236000336628635121e-01
1.934899378214376631e+00 -1.684266936233906886e-01 -6.870858703523885502e-02
1.945943925722743773e+00 -1.654797330130757249e-01 -9.951413622908124312e-02
1.959363384058947055e+00 -1.631412355762885125e-01 -1.297889324188434002e-01
1.965796081700488029e+00 -1.501093267966455980e-01 -2.371024912473428670e-01
1.968900490304889894e+00 -1.490904714397520980e-01 -2.513498265819660293e-01
1.973799474900021611e+00 -1.502986432160663410e-01 -2.522131405577098806e-01
1.976825022980378321e+00 -1.477656642012053212e-01 -2.779841265155116314e-01
1.979180906826259356e+00 -1.602988033112424104e-01 -1.862187119992148032e-01
1.982144052615814278e+00 -1.757623392983301280e-01 -7.111106996362707988e-02
1.984472717918516427e+00 -1.873683516131024185e-01 1.760987376541648525e-02
2.005436053859293022e+00 -1.871973688799216939e-01 1.839645112907376673e-02
2.020793517101381109e+00 -1.868798338012347404e-01 1.736696812979507398e-02
2.055941531871218420e+00 -1.833923353936217082e-01 -1.064028285482662706e-02
2.069239647375085145e+00 -1.690449257775193392e-01 -1.238017241147362363e-01
2.083397674967904845e+00 -1.670882971449412224e-01 -1.544744049011695652e-01
2.091822583874615837e+00 -1.539606651409207716e-01 -2.693265725145805867e-01
2.092244489341759106e+00 -1.541910364839412795e-01 -2.713840512172318031e-01
2.109363465034399088e+00 -1.589285174320546612e-01 -2.710253929795102823e-01
2.136234382815962451e+00 -1.663654809760717057e-01 -2.706164397594185145e-01
2.155488267390252233e+00 -1.822173383013419024e-01 -1.912910639854005501e-01
2.158496758727439957e+00 -1.934911378650057412e-01 -1.101175817171779064e-01
2.151068909991780576e+00 -1.926621972859524634e-01 -1.100636795484185304e-01
2.145694122941169901e+00 -1.920311533190060538e-01 -1.097305677778514788e-01
2.164166852169684852e+00 -2.016277991400384773e-01 -1.646661529346606645e-01
2.204260138642064604e+00 -2.058725518540993615e-01 -1.481466942896641770e-01
2.207938957594451246e+00 -2.085381421530255464e-01 -1.648700695762517210e-01
2.214088522171326012e+00 -2.095355636316564296e-01 -1.645500656530503869e-01
2.231243875622434647e+00 -2.123035019145640689e-01 -1.639091583474939218e-01
2.263877757861354478e+00 -2.176097519354770748e-01 -1.631379207372049833e-01
2.275404615918451778e+00 -2.194914125889063372e-01 -1.629959193534949169e-01
2.298780677836932629e+00 -2.232916456684287121e-01 -1.621825521377987800e-01
2.319644182048721248e+00 -2.266882862097253371e-01 -1.614779817161520192e-01
2.321315411586852839e+00 -2.269474870202583261e-01 -1.615528078993353212e-01
2.338325779652565828e+00 -2.292467544477699015e-01 -1.572604092867712910e-01
2.346292543003321462e+00 -2.456682310645961209e-01 -3.506684508207017631e-02
2.348869587384603275e+00 -2.573338902339225576e-01 5.486077750337956666e-02
2.368922584579310264e+00 -2.563213608630566243e-01 5.503573604500362759e-02
2.379495916084708451e+00 -2.557095296142949392e-01 5.454294432022758349e-02
2.394069060805156468e+00 -2.548976502601707494e-01 5.382825434419156313e-02
2.398921566768395852e+00 -2.595122003931897292e-01 9.412996931326149397e-02
2.408981541779929181e+00 -2.586723181048357079e-01 9.416823780649861975e-02
2.417151409004164808e+00 -2.553196278484201609e-01 7.387695627397725118e-02
2.433174255967798683e+00 -2.491668655993256321e-01 1.222488620357096642e-02
2.435308627986001007e+00 -2.530879694193071683e-01 -1.971034442840145090e-02
2.432800259299670476e+00 -2.534239455617029457e-01 -2.840117068675751880e-02
2.436742656439944366e+00 -2.535142955517010188e-01 -2.850298509881291076e-02
2.454066293677078736e+00 -2.564936346866648065e-01 -8.072222924177495373e-03
2.482704548538292144e+00 -2.654753587661279335e-01 6.329585548140281848e-02
2.485416914340219829e+00 -2.686794403471824966e-01 3.902480049599667267e-02
2.484337333315269625e+00 -2.704736821072168951e-01 6.235230719353630768e-02
2.484655238018492529e+00 -2.712391959269868091e-01 5.632170688848499307e-02
2.495649544186318014e+00 -2.752815956181123291e-01 -5.713966986124243558e-02
2.497116872746277139e+00 -2.775987379843912750e-01 -3.957856457491721464e-02
2.490842978993336398e+00 -2.825719822078008314e-01 1.061329060896140739e-03
2.501007431338579945e+00 -2.859707132683808051e-01 2.882131220494968393e-02
2.504779651833793697e+00 -2.934451796539724322e-01 8.804033705153888056e-02
2.493097340629038872e+00 -2.944490493193628877e-01 8.767577138742803367e-02
2.494411923123547314e+00 -2.944238472968092046e-01 8.860567711190803220e-02
2.497168385186788964e+00 -2.941435919140918953e-01 8.822371184030744495e-02
2.488930750302301487e+00 -2.898021779116373708e-01 4.892805144947974527e-02
2.491689735191224386e+00 -2.893959654560578909e-01 4.681597005756663737e-02
2.493141180888877262e+00 -2.870276076009333766e-01 2.815891053245511005e-02
2.492986958969951594e+00 -2.869883776903903727e-01 2.705188814389121801e-02
2.498230911930139797e+00 -2.787491613612300134e-01 -5.348296849564374011e-02
2.497896260955901226e+00 -2.786479872271535596e-01 -5.352616594055902011e-02
2.483351341685289260e+00 -2.778831879221025924e-01 -5.266009650680869569e-02
2.474775624757310499e+00 -2.815197159985177722e-01 -1.139923641466507494e-02
2.478073565282278956e+00 -2.864159799684189434e-01 2.744647828936857756e-02
2.481003379832383171e+00 -2.979893357925744168e-01 1.183151752652507882e-01
2.501574499847769140e+00 -3.011421848870829421e-01 1.686064272102144879e-01
2.480008153872324428e+00 -3.046839724227330404e-01 1.672753219649936729e-01
2.459915843762676690e+00 -3.080291084829214210e-01 1.664924696420911621e-01
2.458765000260810130e+00 -2.967795421962537983e-01 4.485488947723975661e-02
2.464441368611280492e+00 -2.885359744448069974e-01 -2.003740066355982202e-02
2.468768255941255596e+00 -2.843304989884377632e-01 -5.443260151422390364e-02
2.462549239337985085e+00 -2.839638516700294102e-01 -5.313219336615787602e-02
2.465553313961006854e+00 -2.841237178855705037e-01 -5.229207685722398607e-02
2.465079372102144450e+00 -2.840896940860453967e-01 -5.343757270176911767e-02
2.468121232640650753e+00 -2.841863316433002051e-01 -5.098060538748726278e-02
2.471829758685933243e+00 -2.776278964097191881e-01 -1.055230973268830585e-01
2.471267308055976386e+00 -2.776717650642064883e-01 -1.017151250191662554e-01
2.486002463466784995e+00 -2.937107403907711634e-01 1.766246627448146353e-02
2.501039294374699296e+00 -3.080999552803677655e-01 1.375624657371544435e-01
2.503419850472192287e+00 -3.082443217200872554e-01 1.400313089144979983e-01
2.514939823610689018e+00 -2.902584873640112750e-01 8.403070688110863759e-03
2.518164671563331236e+00 -2.739363864566263240e-01 -1.183098110107846102e-01
2.519271482238776283e+00 -2.735216261909005908e-01 -1.207807199219317063e-01
2.522161965717216514e+00 -2.878534727653040970e-01 -1.806870476909004392e-03
2.526550288031033542e+00 -2.921831314544117153e-01 3.301324843904198530e-02
2.527474876942646720e+00 -2.906030146412271753e-01 1.959824140456864483e-02
2.533230978509432241e+00 -2.820413640635962560e-01 -4.753301288251138290e-02
2.535898668347641216e+00 -2.819078683554738785e-01 -4.785299487924734446e-02
2.543696664335604485e+00 -2.790433955446410264e-01 -7.507251903706305129e-02
2.543317898653105757e+00 -2.892131148704115695e-01 1.129185692981404636e-02
2.546538208264212511e+00 -3.031365976625586822e-01 1.201675676243163793e-01
2.569858568214923089e+00 -2.953838407718111236e-01 7.868503001264828822e-02
2.573552300191237041e+00 -2.760215929023913106e-01 -6.930056267991563379e-02
2.590860919171853016e+00 -2.596595616609516100e-01 -2.124409084882262488e-01
2.598316363849055399e+00 -2.609721337870660740e-01 -2.135145007315004395e-01
2.630157531124093229e+00 -2.671478177360805950e-01 -2.080004757985970121e-01
2.636420407429947765e+00 -2.838933336689719589e-01 -9.004928100965985116e-02
2.652589926528856168e+00 -3.044217830918319878e-01 6.630880762277192864e-02
2.658092459495431825e+00 -3.116600065205329395e-01 1.255358215089769636e-01
2.664990340413585734e+00 -3.108202610667589183e-01 1.255830689641435349e-01
2.694922264146313307e+00 -3.070855109966468821e-01 1.246402590084296352e-01
2.733630784282686577e+00 -3.021803606605000247e-01 1.236412574617783422e-01
2.750245838935840403e+00 -2.865864624222884127e-01 1.756960969926692900e-02
2.729335190156232827e+00 -2.820697602683438499e-01 -1.462716066487500591e-02
2.743368133795013986e+00 -2.838756673095180205e-01 -2.040284565786875152e-04
2.744864445969902533e+00 -2.878050834416480686e-01 2.991496248393804569e-02
2.760059495655611261e+00 -2.992996488286263079e-01 1.305346689403823202e-01
2.775345152035670448e+00 -3.062665929533900377e-01 1.989809363397562758e-01
2.789823588384479969e+00 -3.031206750693418717e-01 1.972363831523610000e-01
2.791883991377225538e+00 -2.918004329332123947e-01 1.143376949448307173e-01
