4.499694918502135543e+00 1.499999069092946336e+00 -3.141584351930076568e+00
4.379650574267675012e+00 1.499752534769580148e+00 -3.139036056738155001e+00
4.294268793761496283e+00 1.504247598797880503e+00 -3.085167174607353235e+00
4.227976594405193467e+00 1.511752057709432773e+00 -2.971228839169019142e+00
4.139737469320817098e+00 1.504634727117894366e+00 -2.874955623561669782e+00
4.058890374350445640e+00 1.486918855742270118e+00 -2.902456099275652512e+00
3.960916157599079224e+00 1.466961538589273140e+00 -2.951037336279881629e+00
3.901786623855012071e+00 1.447223942191797175e+00 -3.033027249670891212e+00
3.820864078218790372e+00 1.442201056234841516e+00 -2.965874367810595214e+00
3.814910493159373583e+00 1.438991714057065163e+00 -2.946202248270949564e+00
3.771697128754877060e+00 1.413410258005012077e+00 -2.837481476405769421e+00
3.626538408406107195e+00 1.370686988080288771e+00 -2.775548582558561961e+00
3.552079392929783808e+00 1.341300478062045443e+00 -2.780462309168894919e+00
3.442071225431063031e+00 1.305507864173411026e+00 -2.859377966828626771e+00
3.314742152690012045e+00 1.268768349606270718e+00 -2.860129868427334632e+00
3.288730164817524226e+00 1.264764313165990472e+00 -2.830913615050520526e+00
3.226539752834468811e+00 1.240952342535436959e+00 -2.804883187338056416e+00
3.198178557454637971e+00 1.216931218240442369e+00 -2.712929893604818066e+00
3.127497696646337921e+00 1.176566230260591261e+00 -2.673799613238226236e+00
3.049934662178576783e+00 1.137426423286549415e+00 -2.674409624395860163e+00
2.988272274210563406e+00 1.101055735999745711e+00 -2.725230914973442609e+00
2.959375693419216802e+00 1.077980509448065227e+00 -2.808905963522121407e+00
2.889200454114701166e+00 1.053296822047426584e+00 -2.806875456834946103e+00
2.849396831062078750e+00 1.039408035021661014e+00 -2.806250524064634710e+00
2.810989278256319057e+00 1.024735577481512783e+00 -2.796755788671066778e+00
2.787874063247603118e+00 1.019957959341993403e+00 -2.690173821212635819e+00
2.779067685573127111e+00 9.997641067627918154e-01 -2.587117724068006552e+00
2.731935533610843958e+00 9.642947904369671974e-01 -2.555814470988850395e+00
2.705808219242459955e+00 9.470726788712668931e-01 -2.557415636058325781e+00
2.652097277390323971e+00 9.084561016675221090e-01 -2.582989744774216501e+00
2.580572968359798658e+00 8.665223461942826999e-01 -2.554454836937835260e+00
2.527595349449212936e+00 8.262621982120373909e-01 -2.525276022734767700e+00
2.476003750366639000e+00 7.826624560304898948e-01 -2.493521109552879089e+00
2.418640706100962046e+00 7.455621187009440209e-01 -2.449607458555606687e+00
2.354052424975682012e+00 6.981080383209308238e-01 -2.392615491949838358e+00
2.281897606738434447e+00 6.308259671097031784e-01 -2.397569926332903112e+00
2.253118865360514533e+00 6.004014629035540063e-01 -2.424841743727637500e+00
2.199781740776631800e+00 5.627796455174519652e-01 -2.477325266861154507e+00
2.118488889859788671e+00 4.983516549852493593e-01 -2.486967461483753805e+00
2.036691060286464516e+00 4.288868488887365160e-01 -2.452359263739158468e+00
1.989167418419219402e+00 3.893593777239810483e-01 -2.458837148225851976e+00
1.931685023166346715e+00 3.432503147205813177e-01 -2.453183711726058203e+00
1.859529144367964681e+00 2.843734312311341772e-01 -2.445292969928595017e+00
1.803884719162724526e+00 2.303937082522519442e-01 -2.409461984043761440e+00
1.688927020860563344e+00 1.279195251030887381e-01 -2.397913276301496310e+00
1.626139414111268167e+00 6.704386544110887969e-02 -2.422371614859030409e+00
1.551448096930667875e+00 -1.058092726339532157e-02 -2.370978974425165031e+00
1.442193179174675155e+00 -1.148821071742417294e-01 -2.344432998822174596e+00
1.329856199117967819e+00 -2.320738564772791279e-01 -2.378045111636673425e+00
1.193483148477798794e+00 -3.609808099928428771e-01 -2.348412073531869204e+00
1.058132900468153670e+00 -4.990353260603054286e-01 -2.338957582991578299e+00
9.217888065915541551e-01 -6.344171287787232494e-01 -2.216371078111479598e+00
8.214320389621054819e-01 -7.814934807393185690e-01 -2.076102406524412025e+00
7.332872383876445355e-01 -9.295781348197786897e-01 -1.924468920097842872e+00
6.841839417564564707e-01 -1.101005429708584948e+00 -1.855555169258521708e+00
6.329959489994871902e-01 -1.278187868558673834e+00 -1.773473311979517852e+00
6.070798609674433743e-01 -1.472242128794606364e+00 -1.661338319782479145e+00
5.855172515688505941e-01 -1.669996367907205626e+00 -1.544287359459805442e+00
5.967982475411101051e-01 -1.864659333762896720e+00 -1.470315109344191518e+00
6.167298095400294278e-01 -2.055047639023651396e+00 -1.390023331923115890e+00
6.529939126563236718e-01 -2.249574032610996976e+00 -1.373168582818927952e+00
7.032347981071349619e-01 -2.429233409501506014e+00 -1.283894483598959857e+00
7.594423123426542466e-01 -2.618959277030431743e+00 -1.307748810976555820e+00
7.829797613027278391e-01 -2.671124937228212204e+00 -1.280617196288908799e+00
7.831008126703823402e-01 -2.671230132026113147e+00 -1.281377184031629479e+00
7.831953426554149056e-01 -2.671363117573766210e+00 -1.282365235224169453e+00
