4.489084646836317027e+00 1.499665214810411040e+00 3.136535539272066853e+00
4.470238449661817270e+00 1.500312632371076038e+00 -3.141392884385408646e+00
4.460115994351890656e+00 1.500148623396373671e+00 3.139960139113706195e+00
4.450298072798728022e+00 1.500513813430341514e+00 -3.137762411896883652e+00
4.443510008939720812e+00 1.501808532149468967e+00 -3.127406488532292972e+00
4.430325010013152820e+00 1.501734027430719376e+00 -3.127134382084453268e+00
4.417287359697232851e+00 1.501377534196685071e+00 -3.128262593867232599e+00
4.411414220362943617e+00 1.501424442895674227e+00 -3.126895380030410454e+00
4.400506464363089343e+00 1.501344566224970700e+00 -3.124593539812326792e+00
4.383252033301642037e+00 1.500316248714484324e+00 -3.117369676586179139e+00
2.947462270010539953e+00 9.688875304296593605e-01 -2.413764465277206561e+00
2.896354432047995697e+00 9.431886720341395858e-01 -2.277766219796856006e+00
2.793965694978028491e+00 8.143538011552474698e-01 -2.358784736764829137e+00
2.658654122109857632e+00 6.795968660279170237e-01 -2.412110708642393853e+00
2.523407184898850186e+00 5.587302259319967268e-01 -2.387657500387862175e+00
2.481295581679814344e+00 5.172638456170872701e-01 -2.404418238331423208e+00
2.379607271097785137e+00 4.253547722218601335e-01 -2.390086292499419951e+00
2.344333641311566296e+00 3.945827808427236905e-01 -2.373425586319404257e+00
2.283817395850666898e+00 3.175026801321730319e-01 -2.541206407320367511e+00
2.134105985934386940e+00 2.155426433498533745e-01 -2.528975193359459084e+00
1.979168143076841302e+00 1.053375407965753685e-01 -2.577236310530014674e+00
1.856685042948343467e+00 2.743147301420943013e-02 -2.574310260520288107e+00
1.692372793751025783e+00 -7.708750256293546432e-02 -2.576144830768665628e+00
1.657242126325960241e+00 -9.875431665806141956e-02 -2.570301970507310685e+00
1.509972409206709498e+00 -1.840065821586036598e-01 -2.418963775664704663e+00
1.394481162580304634e+00 -2.940260359914411148e-01 -2.498354424541210594e+00
1.365305967396486020e+00 -3.160410590472565451e-01 -2.500233987572845429e+00
1.287124886131754353e+00 -3.878286522191549124e-01 -2.640691923997104951e+00
1.141092937311223077e+00 -4.679319381847396042e-01 -2.657695635064975637e+00
1.049478502608995445e+00 -5.161887180682602771e-01 -2.656634674519066763e+00
9.350471058165312765e-01 -5.787663323907891177e-01 -2.688988581248489051e+00
8.623727175329540806e-01 -6.107837096547783506e-01 -2.644511720554787892e+00
7.498124184072526566e-01 -6.623723438317246082e-01 -2.516998752506165449e+00
7.245701759352274340e-01 -6.854368665664913873e-01 -2.574787057735019147e+00
7.268709569686268024e-01 -6.987425928754440463e-01 -2.673237264777977629e+00
6.095932991292312142e-01 -7.585423106499230572e-01 -2.626164497343149051e+00
5.732378281352683569e-01 -7.788141132477475193e-01 -2.622730055056624376e+00
4.329668791945544548e-01 -8.579381984465820343e-01 -2.591221994064323297e+00
3.857156333931771042e-01 -8.944960370246931580e-01 -2.651085772262927964e+00
2.292055983917178907e-01 -9.763135852819547766e-01 -2.623046333614395209e+00
1.222416906127627295e-01 -1.034658615703377027e+00 -2.655514535458785019e+00
9.813367385569583823e-02 -1.047127984700481962e+00 -2.650355617433072908e+00
7.620052279157023267e-02 -1.057384070320458225e+00 -2.637896030566791783e+00
-1.303290596650358291e-02 -1.111412033942020372e+00 -2.693403862020415040e+00
-1.751612081938084264e-01 -1.189388488852139769e+00 -2.687980130014729241e+00
-2.164796466566450139e-01 -1.219371411212092582e+00 -2.769843415368756112e+00
-3.805995917695626507e-01 -1.283759108036779617e+00 -2.807446550641917504e+00
-4.904239569448033409e-01 -1.321866702468292853e+00 -2.806568239946358734e+00
-6.638668034555167408e-01 -1.381569682247062225e+00 -2.765479974572322419e+00
-8.201421534640588318e-01 -1.443283098411984655e+00 -2.764598516145443163e+00
-8.371378087325762607e-01 -1.439079336615126881e+00 -2.680427030565250668e+00
-8.527415213658455784e-01 -1.430020863620069971e+00 -2.559842813685030194e+00
-8.767402315782053535e-01 -1.460341343866717878e+00 -2.674006788962623560e+00
-9.255911334315842787e-01 -1.486938999761730829e+00 -2.734479136095703922e+00
-1.064063283082508971e+00 -1.552183205990534720e+00 -2.700768845414086350e+00
-1.132027222268080724e+00 -1.590964515870545215e+00 -2.755084209398685591e+00
-1.211556047278988135e+00 -1.623264781949872004e+00 -2.754841466749046841e+00
-1.249868713956363564e+00 -1.625933088888385392e+00 -2.641450091068653361e+00
-1.322054272116558682e+00 -1.665191432902986213e+00 -2.638117437188041148e+00
-1.383978527044565698e+00 -1.689679793070542280e+00 -2.551080581984491946e+00
-1.486601190445691278e+00 -1.755626894948222771e+00 -2.476698704658717443e+00
-1.570260735099969551e+00 -1.821476847245979691e+00 -2.473049253164871342e+00
-1.611246073009992896e+00 -1.852776084239469379e+00 -2.466241231198358363e+00
-1.755475381752477748e+00 -1.969777889062296339e+00 -2.485105757847354102e+00
-1.829141993544821654e+00 -2.025714873216992284e+00 -2.472447699301914881e+00
-1.822250423862113777e+00 -2.021768497989815838e+00 -2.481211251593126388e+00
-1.913687124488517632e+00 -2.083202566735968375e+00 -2.354412541790419144e+00
-2.043626799315662268e+00 -2.212814198117648790e+00 -2.334945779799461718e+00
-2.056460926045954096e+00 -2.231726864235004104e+00 -2.366494133436798819e+00
-2.179427359924131835e+00 -2.356434201731662625e+00 -2.334575803210561240e+00
-2.275435046376581560e+00 -2.455627206449126465e+00 -2.300431377338292283e+00
-2.402057667644188044e+00 -2.593926871029612613e+00 -2.181271445827009270e+00
-2.494281315779200092e+00 -2.726736020573482744e+00 -2.221455799688188293e+00
-2.608463953197309504e+00 -2.866151437482018505e+00 -2.104044686534971564e+00
-2.619015206909604210e+00 -2.875761868039791391e+00 -2.169378962811259193e+00
-2.647832220995585129e+00 -2.918295436054126668e+00 -2.171278369483434556e+00
